# .PCD v0.7 - Point Cloud Data file format
VERSION 0.7
FIELDS x y z
SIZE 4 4 4
TYPE F F F
COUNT 1 1 1
WIDTH 1560
HEIGHT 1
VIEWPOINT 0 0 0 0 0.5 0 0
POINTS 1560
DATA ascii
6.7274365 32.125175 7.3460813
-0.51551747 28.982658 7.5949388
-0.25304449 29.351095 8.7478256
0.15575404 31.954386 14.001976
6.4306841 31.533127 7.3236561
-2.2729955 22.118511 5.0423679
1.2335224 13.131756 2.6122649
-1.7304192 11.979095 2.943552
0.13714191 28.541113 11.731257
-2.540472 17.949438 5.7920604
-0.19197702 26.672802 9.3201275
2.6769512 16.392136 5.1036782
0.44221836 25.761978 4.1270185
2.0106332 20.875885 3.8949306
-2.4895668 19.772411 5.4988966
1.8682795 13.37624 3.0566931
0.90383327 10.665797 7.5368028
0.48805076 17.630508 2.4712582
-1.8432605 24.906731 5.1244822
1.4530343 26.912897 5.3307505
0.073444761 31.064739 14.816204
-0.22013922 18.70826 2.58055
-0.17839888 31.214567 8.4165087
-0.15446571 32.367294 14.200851
-1.9682629 15.085798 6.8389139
-0.26821557 29.052216 7.862443
-0.17532793 32.223007 12.232934
0.163991 30.42577 12.854418
0.92908174 18.86578 2.7560754
-0.21085057 28.938141 10.644938
-0.13527933 27.867111 11.107516
0.00048952905 24.023174 7.7035074
8.048439 31.893335 7.1981115
8.6863327 33.781628 7.4868631
-0.6280871 28.742386 7.539722
-6.745059 32.069824 7.349246
-1.9053969 30.852726 6.5203562
-2.6219261 28.166138 6.9106441
0.8451997 28.737411 5.3154836
1.7710376 11.037952 2.9768872
-2.6000819 30.967056 6.5921011
-6.2252674 31.386208 7.3030138
-9.191185 34.256958 7.4588652
-0.25727993 27.929661 8.6308002
-0.25496563 27.758629 8.6741571
-0.19018826 32.361679 6.1848855
6.9202247 32.718227 7.0872526
0.05506628 33.561249 6.5437884
2.5734694 17.050575 4.3629398
-0.20935655 30.789898 8.5233507
0.17730987 32.135227 11.501904
-2.3159225 14.988897 3.6789942
-0.071386933 27.385174 7.695879
8.5935602 33.260651 7.5195665
4.2479362 28.819853 6.8135037
1.8708487 16.100969 3.1343908
-2.5590119 11.184748 5.8273482
-1.1508925 15.650944 2.631851
0.20514745 17.676403 2.4484038
2.5466385 15.547588 5.8469434
-0.34028471 21.035576 2.8873935
-0.1994307 29.986637 7.6826248
-0.23932973 27.283562 8.9248238
0.025364626 13.196104 7.70052
-0.60658348 16.105192 7.6273923
-0.60042888 29.101992 6.3301616
0.62377661 28.043985 6.3323822
-2.4449282 27.896105 6.5945325
-0.62753022 16.602909 2.4750602
-5.5647516 32.698017 6.9702907
0.53073728 24.915333 7.6205873
0.96097666 30.203127 6.3987045
1.8623161 29.463928 6.874033
0.26853254 28.074923 8.2252998
2.2193835 16.03894 3.5429521
2.3222568 31.613939 6.8226061
-1.6507561 31.283548 6.5319128
0.81863594 28.854122 6.3518562
0.23360588 30.315329 8.8376408
-1.9907131 24.494656 5.4548421
1.4021319 28.297985 6.1398153
-0.11721362 31.651844 8.1911154
-2.6761639 17.036362 5.078815
1.5989916 21.322763 3.5116904
-0.25863594 34.210159 7.1017456
1.844937 12.862214 3.0375359
-2.6456351 17.183506 4.7367983
0.5289256 29.055256 5.2259293
-0.7585786 32.365681 7.0585532
-0.34148347 25.40971 7.6697674
-0.10999426 29.625614 13.054502
-2.3445311 18.921667 6.1984816
6.3402939 31.638622 6.9950781
1.7408552 22.948988 4.1606059
-1.4294313 28.695875 6.4314361
-5.6580257 32.791763 6.9872632
6.3550334 32.226212 7.2104411
2.6320143 12.365913 5.5866861
-0.92080867 30.096554 5.9185562
6.3562112 29.7635 7.1114888
-1.9850044 28.615715 6.8779712
0.975492 30.488258 6.20121
2.3209715 21.938374 5.2810163
-4.3206215 29.886847 6.7704935
-0.020606086 33.1954 14.441616
1.5591102 23.793577 6.9966636
-1.7027588 11.889174 7.0820665
0.89575756 28.623489 5.3156586
-5.6237659 30.448547 6.9220829
-0.17929102 31.486338 9.1994095
-0.68788254 28.943619 5.2732348
0.054950047 31.527029 7.4546051
-2.1108596 28.050186 6.8687906
2.8883877 31.027191 6.9427385
0.33417067 23.799786 7.6706324
1.5180992 19.367031 7.1944246
0.18178838 29.887753 12.034555
0.94766676 14.372421 2.5032897
0.91928315 15.093441 2.5164657
-0.2217568 27.681801 9.4912815
-0.6453898 32.632149 6.6413231
1.7369325 26.118999 5.6839733
4.3219409 31.511745 7.0914536
-0.79742765 27.236773 7.4802628
0.46746501 29.620098 6.4664125
-0.34620076 22.893223 3.313709
-1.9157997 31.586483 6.7688131
-2.2897975 30.69282 6.5492282
1.9867265 15.64653 3.2487671
1.7175461 12.545815 7.0699301
-0.25914201 18.715509 7.6781511
0.25555167 28.836403 8.8200169
-7.6287966 31.310139 7.4184847
-2.2699201 20.106213 4.2034335
0.56645817 31.249413 5.9977226
4.1697879 31.941391 7.0497618
0.19507624 31.584827 11.496355
0.13756093 32.726791 11.408447
-2.1153476 14.067783 3.3565559
-0.26106304 28.890892 8.4214268
-0.67680812 10.019068 7.6056833
1.1002319 26.224537 6.5143285
1.9954755 17.803429 3.3503108
-1.2918649 12.951492 2.6434522
3.6151776 30.225883 7.0472345
7.2535753 31.820988 7.1002545
0.15376019 19.348576 7.6885591
0.41673782 33.724289 6.7849178
5.7379775 30.168175 6.9544926
-0.48633265 24.291668 7.6375275
3.1777024 30.047569 6.6308632
2.1094956 23.339872 5.9865961
-3.7052419 28.763063 6.7325048
-1.273247 20.806503 3.190783
1.7158518 14.139843 2.9483521
3.5283456 28.937391 6.6983681
-1.7677877 31.691061 6.5918412
0.14323917 27.947649 11.09989
1.4870234 25.451324 6.9500275
-1.8685555 18.994381 3.3999865
-4.2676344 30.248823 7.1088524
0.91274011 24.901186 4.0293627
-0.21372844 24.672215 8.0414906
-0.17655236 32.086716 12.775704
-2.6003795 14.531656 5.6822777
0.25453088 29.253857 8.6927214
-0.15208822 32.870022 12.661764
0.17746076 29.928118 5.4039412
0.11490975 27.734814 7.4546056
2.5269604 15.180523 4.1345119
0.78950804 18.299629 2.6405876
-0.96593869 16.352953 2.568917
-0.1266235 17.463394 7.6912184
0.61376619 25.894587 6.4493294
-0.19772404 25.255409 8.4388399
0.69740927 11.926667 2.4034734
-3.6773813 28.98875 6.7174101
-0.67470819 28.885979 6.7521124
-2.6614618 15.682664 5.2987204
1.280305 16.659117 7.3663998
1.4025041 14.657007 7.3004379
1.0130132 18.416067 2.7252626
-8.135808 31.114325 7.4205055
2.6642187 11.159319 4.6222439
5.5522537 30.685972 6.9096622
9.7972498 32.843262 7.6461344
-2.6750617 16.49958 4.975502
-1.0085782 23.066874 3.5803535
-0.11826253 33.670967 13.486429
-8.8995323 33.280731 7.5557518
0.4878937 16.660316 7.6558414
0.065576658 25.327 9.242301
-0.0032064961 26.761967 7.7027502
1.6401227 25.613058 5.0394969
2.700542 10.182559 4.9911385
0.18913448 31.741451 10.761299
0.224208 30.29142 10.294239
-0.19293556 31.482601 10.016951
2.2784991 13.825809 3.5688877
10.183273 32.98851 7.5024204
-4.6998019 29.012215 7.0864902
-2.7118123 29.301399 6.5817685
-1.602847 25.381376 6.7928209
0.15542319 30.6618 13.232874
-4.4620123 32.54353 7.0217881
-0.4757539 31.261732 5.9420586
6.9206824 30.841347 7.3455791
1.6781247 28.181393 6.4712024
-6.3503222 31.954163 7.0019188
-1.7125659 26.396267 5.9271607
0.61521196 19.454691 7.6192951
-0.81748629 27.471415 6.370388
0.17192195 22.680138 7.5302005
-10.232042 33.211105 7.5039668
2.9553816 32.037056 6.7107458
-1.9981227 21.438803 4.0001984
-0.68575382 30.530533 6.7019863
0.52385575 21.879465 7.63796
-0.23359704 29.401138 10.012112
5.4174728 30.412624 6.89713
-1.7544534 16.260094 3.0451746
-0.10631503 32.2314 9.4136543
-0.085507005 24.193804 8.4878759
8.9783659 31.970173 7.3279958
2.4315393 11.332573 3.8471611
-0.58772469 17.512569 2.4907215
2.4891052 29.621841 6.9376421
6.3345346 30.8832 7.3040867
-5.7838516 30.540226 7.2493033
-5.4753952 31.008595 6.8945789
-4.4291048 30.642685 7.1268926
-0.14732981 32.702705 11.699783
-0.1603052 30.499386 12.99751
-0.10411324 34.391354 15.307451
-0.18837559 28.000175 10.457584
-2.228652 22.179878 5.9422121
-0.20229582 31.025808 11.484209
-0.13212664 29.120758 7.672143
-0.24921979 28.144114 9.0126944
-2.1024661 29.392408 6.5056148
-0.1726912 29.201832 11.758448
7.8823404 31.899887 7.1772594
0.064357236 10.444011 2.306237
0.16661626 31.865015 13.540869
-0.24701917 26.669212 7.6787596
1.9564539 23.542625 4.7320204
-0.19666137 31.39278 11.696855
-6.6609969 31.270386 7.3404875
1.0695736 18.540312 2.7724845
-0.073651142 28.537052 12.294563
-0.63095462 30.241474 6.7089701
-0.22200423 24.546253 3.7105327
0.14732677 26.410809 9.58953
-0.23276138 24.374847 7.5962257
1.2151176 26.256907 4.7194901
2.5160887 10.533078 4.0340667
-0.12456652 25.284014 7.6911621
-0.23017123 29.619438 10.207199
-1.0269501 19.603491 2.894675
-3.0526817 31.976669 6.8858004
1.8846197 25.32789 5.783843
-2.3989255 29.681736 6.9274354
0.95632619 22.203701 3.325124
-5.2612634 30.884468 7.2082548
-2.4776592 28.669756 6.9234333
-3.9322584 29.276661 7.0579257
1.1346731 14.066548 2.5739856
0.22599339 26.606373 8.8109903
-5.3672276 31.765051 7.0797958
-2.5818663 16.543127 4.3711371
-1.2527879 20.235847 3.1013157
0.68828124 26.291721 4.378592
-0.17347145 15.210129 7.6863718
7.9128237 32.873722 7.3328247
0.64654529 10.122719 7.6148653
-4.4717407 31.001863 6.7848835
-2.5388019 11.302118 5.8939734
-1.675391 29.333694 6.8564324
4.000556 31.968714 6.7771616
-1.6901945 21.782703 6.9793768
-0.24109332 29.619076 9.4320621
-1.8075137 24.729546 6.5249982
0.26658002 28.765621 8.1073675
-2.8641479 31.032669 6.9397364
-0.37314588 28.813305 7.6427078
-1.8045239 30.951908 6.5155563
2.8366613 31.982075 6.6952906
-2.6969464 13.924895 4.9834514
-0.79579365 31.013517 7.2906132
-6.9563389 30.757683 7.1003122
-0.15515451 32.79475 13.942083
-5.8994045 33.069687 7.0476713
-4.7004194 31.057346 7.1493607
0.16873381 32.435997 12.921351
0.97354746 29.29594 6.7792683
1.8298954 11.367168 3.0251915
0.13122961 33.012123 15.350407
-2.690335 13.182487 4.8874769
-0.60372734 25.543697 4.1054029
-2.6476598 14.247303 5.5132113
3.423192 27.867153 6.7692513
-2.7687118 30.412678 6.9556322
-0.092915371 33.82888 13.189392
-5.5933609 32.251656 6.9396634
2.4976442 16.268509 6.000689
0.4701491 18.721891 2.6067634
1.5237653 21.696995 3.5558591
-1.9352849 20.803873 3.7904549
-0.019223165 18.883602 2.5832224
0.55230087 31.469032 6.5293684
-0.52606046 31.695005 7.5223446
-3.5880868 28.415691 6.7381773
-1.7539828 27.905312 6.8364239
-0.94920033 26.362919 7.4171638
-0.17861754 17.934551 7.6861315
-9.3619299 32.605492 7.3518343
2.571137 27.448458 6.6593046
-0.50969619 25.923634 6.4251709
2.3804266 19.172594 4.2286706
-0.29188901 14.915351 7.6746702
8.4009123 32.428085 7.5153551
3.4992845 31.273403 6.6925116
-0.63195109 13.189552 7.6192932
-0.22493017 24.235655 7.6522026
5.8635583 30.374828 7.2484236
0.039394651 17.276295 2.4167938
0.091763869 30.987137 14.547743
-0.063907072 27.77788 11.593288
0.14490743 32.184357 10.119689
-0.13460913 18.467382 7.6903033
0.12370849 32.609253 15.393293
0.087235592 31.655561 7.8251443
1.0053804 30.856607 6.7445364
1.075038 15.261779 2.5789962
-5.3354869 30.73658 6.8825231
-0.099473581 26.513601 10.114526
-1.2170497 28.530567 5.6873293
1.0347071 26.324291 6.4889607
2.3378205 16.24095 3.760211
-7.1181445 32.327484 7.384038
0.10127166 33.474033 12.452621
-1.2071929 18.306271 7.398602
-2.4434309 16.322933 3.9599707
3.6412573 28.473425 6.7401395
-3.6718237 31.559252 7.0112104
-5.5125442 30.097204 7.2100501
2.5428312 29.050194 6.564539
-0.079714708 27.34985 11.06995
-2.4105651 11.513102 6.1950035
6.7960277 30.508823 7.0893674
2.4382081 20.572613 5.4822807
2.6515622 10.437846 4.4937053
-0.19342375 25.353218 8.5200615
2.6755991 14.081065 4.7792921
1.9865817 19.65077 3.6561115
-0.25409487 29.164749 8.7643471
0.18050599 13.014353 7.6852436
8.2822323 32.710751 7.2206311
-0.30311039 13.442795 2.329746
4.5648389 29.798883 6.8015461
0.86524993 25.690567 4.2703443
0.016628476 33.719913 15.332581
3.3100271 29.984207 6.6444201
2.9674339 27.683716 6.7059784
0.59592807 14.848503 2.4113204
0.14515433 28.330414 7.6883845
0.18893556 18.719637 7.6851578
-0.19180474 31.691422 11.66441
-2.2082796 22.21476 4.8162942
-1.393249 24.587439 4.2667542
-1.7620066 24.205467 4.6234078
-2.8906798 32.025002 6.7051339
0.061804127 19.857712 7.6974821
-1.2086328 20.872776 7.371007
-2.2172406 16.008749 3.5396664
1.5003245 15.708881 7.2474804
-2.6525536 10.107516 5.4991426
-0.13354212 23.960701 3.5569103
9.3477201 32.399742 7.3588495
-1.8142061 25.718472 5.7599478
0.23828116 28.80217 9.6120071
-0.22760239 24.036469 7.4546051
0.17239749 31.037304 13.015722
-1.7029183 25.969494 5.4082394
0.95064521 16.454679 7.523798
-0.14600365 31.451464 8.2000599
0.44778365 12.09112 2.3439913
-1.7860787 28.650316 6.4777656
-2.286211 16.411388 6.4190836
1.2197014 29.957005 6.5710392
-0.87755018 12.951582 7.5447774
-3.1521902 31.48344 6.9523687
-0.27336943 28.626461 7.7139411
-2.2795792 21.665094 5.9289498
2.0114608 28.097603 6.8639865
-8.0978632 33.750557 7.2787051
-2.5369885 12.917336 4.1029654
-3.0228446 29.753859 6.6132956
2.6780183 12.162322 5.2405252
1.3183541 27.1768 6.7702594
4.7528615 32.075817 6.8508987
2.5190554 10.678563 4.0438461
-1.48243 14.707592 7.2584085
-0.844706 10.268471 2.4481544
8.3332453 32.897907 7.5026159
1.6812911 28.746662 6.85221
-2.4131455 31.932068 6.7859321
0.10508777 33.745663 13.313703
-6.6206388 31.535671 7.0270863
-0.075412944 26.105677 7.4546046
-0.19809178 31.007145 8.6233997
1.2696131 29.930616 6.4200759
1.1246493 21.15567 3.1595466
-0.11689412 10.40414 7.6915073
0.48543191 33.969215 7.0616326
-2.6665435 16.370178 4.8795328
-1.5216995 26.967377 5.5116682
0.18044558 30.246449 12.321138
-0.37065274 26.7132 4.4129333
1.7693715 17.105988 7.0286379
-0.17403053 32.266441 12.587133
6.3803153 32.467552 7.023818
7.2291808 32.485329 7.3925962
3.0237308 30.412785 6.6195536
-0.95013762 30.528812 6.4136124
-5.1609211 29.259422 6.9344616
-0.96291351 12.033159 7.518878
2.4668238 30.582863 6.913662
8.6088352 32.801437 7.5341015
2.0769911 14.739492 3.3297131
-0.86868745 25.267002 4.1292534
0.1898312 22.935293 7.4928007
2.5682323 18.862316 5.3181362
0.18039934 32.058681 12.118237
-4.5196867 31.216135 7.127934
-2.1934605 29.3316 6.9073405
0.18159617 31.862537 10.737294
-5.4224157 29.263603 6.9818954
-1.3506829 28.374001 6.6605806
-0.51882863 30.839283 6.4016247
5.5871487 30.178455 7.2192173
-0.25876209 28.939955 8.5538807
-0.929057 13.360639 2.4737415
-0.10713442 23.551056 7.6929865
-1.1054833 20.638161 7.4285145
0.23173448 30.402845 9.6082449
-0.25533187 19.867329 2.7308426
-1.7188784 10.898543 2.9340806
0.33468592 10.362162 7.6700621
0.23240085 30.35812 8.9718523
-0.15348797 32.934242 13.11338
-1.038078 25.850216 7.3701181
-3.6509969 30.283199 6.6854916
1.0739063 21.862595 7.4298902
-0.57231545 21.409641 7.6255617
-1.3310744 28.695393 6.5767374
-1.167299 26.985023 6.7505565
-6.6562057 32.176918 7.0382476
2.6713884 17.457054 5.1047344
7.8342352 32.371563 7.1667376
1.5249865 17.355263 2.8918009
-2.0167665 16.479586 6.7778187
1.3656003 16.124401 7.321002
2.0236771 26.845661 6.7463861
1.0171443 16.132109 7.503716
-2.6680908 15.542906 4.827137
-1.820616 24.073803 6.5929413
2.9112389 30.464855 6.9697042
5.3963895 32.383957 7.1748142
3.8918328 31.121462 6.8895245
0.19889599 26.423717 9.0607204
0.096746452 34.561626 15.455626
0.27792734 15.569843 7.6759224
1.0340066 27.63365 5.0701437
-7.3050947 31.992962 7.1036835
-2.4122307 16.296925 6.1864715
0.69449735 15.988799 7.6003838
8.1274748 33.909103 7.3415523
-1.9795876 29.606981 6.495039
-2.0502625 30.401299 6.7507
-0.1757236 30.602871 12.689668
1.7221553 16.405277 3.0220256
-1.7323177 11.286299 7.057807
0.24823619 27.441729 8.8346748
5.8712568 31.09516 7.2665205
2.637845 17.672604 5.4113698
-0.20605314 30.809845 8.3999252
-0.65416712 18.61582 7.6097374
-2.6656597 12.933563 4.6368794
-2.1963665 17.44146 6.5565381
-2.8715096 28.517986 6.9455948
-0.076984927 33.825741 7.4308987
2.0207062 22.163307 6.4811277
1.3870249 17.879414 2.8494067
-1.4334552 17.301653 2.8311594
-2.659174 17.238016 4.876925
2.6801393 15.237361 5.131031
-7.8216386 32.024239 7.4568501
4.1382365 29.460152 7.0814123
1.2823405 27.35816 6.4494247
2.653228 10.93128 4.5106249
7.1319227 32.386059 7.3841748
-2.6768832 10.915984 4.7508631
9.0253162 32.300922 7.5665088
-0.8034324 30.607628 6.7127743
-0.24874532 28.775572 9.2115498
0.15168504 32.989605 13.773532
-0.1484243 33.100784 13.492144
-0.39288333 33.358368 6.6201
1.122353 28.886551 5.6857972
-1.2251399 30.863396 6.4560513
3.7796741 31.907383 6.9965358
2.6519847 15.104752 5.4226799
1.5857309 28.021717 6.8301582
2.0969422 31.911438 6.7222509
-0.24201566 28.535141 9.3870096
0.15192249 32.825432 14.167712
1.8021268 21.778608 3.8633056
7.8009534 32.936832 7.1778088
-1.2766128 27.566862 5.3233457
-0.18540801 22.887022 7.517189
4.6470599 30.382404 7.1450815
-0.32441568 28.586189 5.0046234
-4.5754623 31.420015 6.7992315
-0.36360472 27.809376 4.7652907
0.14903212 26.639214 7.6884193
-2.635824 12.651527 4.4287906
-2.2315314 13.581069 6.5128145
0.5837763 30.00359 6.7142062
1.7388971 24.616138 4.7382388
7.2341218 33.050785 7.3619165
-2.3690491 17.901308 6.2400818
1.4212065 27.114342 6.826726
0.26952669 27.693405 8.077343
-2.4032037 31.896244 6.6594467
-2.3280299 28.21162 6.5622578
-1.138737 19.719423 7.4200258
2.6528418 13.653134 4.5126591
-0.17140773 28.603712 11.259817
1.4955369 22.493988 7.1260777
0.0887141 28.553715 12.220879
-0.1525775 31.042294 13.572058
2.3894176 14.432404 6.231678
-2.5595989 15.004861 4.2365932
-1.2286897 25.0317 7.2512064
-0.12672874 33.806213 14.618882
-1.561296 26.677837 5.4388504
0.21297781 30.561167 10.961583
0.11165258 29.867687 8.8441
-1.2467153 15.975494 2.6928809
-0.46122789 24.935062 7.6415415
0.51985013 16.094221 7.6525669
-0.25455821 27.573769 8.6376848
0.40102378 29.436203 7.6301494
-0.49938253 26.201698 6.6549406
7.6086192 31.129602 7.1752849
2.4119065 12.644351 6.1924944
-2.6467621 11.508543 5.5380678
0.13886604 32.911903 11.95773
3.4951177 28.339533 6.9744978
-0.48256493 32.710369 6.4586973
-4.0031667 30.257553 6.7257242
1.9953964 24.347672 6.0435095
1.2811325 14.329828 2.6601768
-0.25997347 28.252132 8.61588
-2.9220839 30.699509 6.695601
0.2246514 13.326481 7.6808968
-0.61969072 30.600826 5.8061991
1.6726235 10.618781 2.8961196
-2.6775296 15.205222 5.1606326
0.34558916 13.27196 7.6689892
-2.2129118 18.148815 3.6837194
-2.6370306 15.849285 5.5346599
0.69170469 31.478992 6.5634217
-1.6452124 18.646738 7.1063409
2.0052774 17.280109 6.7904587
0.042293422 34.803062 14.79187
-0.25972742 29.464306 8.2427034
3.3229053 31.470554 6.9734178
-3.278873 28.153078 6.9472132
0.49014807 23.278336 7.6413336
-1.8845564 22.762972 6.6534266
0.18211514 31.993542 11.340529
-4.1105642 31.275017 6.97575
1.7272769 27.882368 6.8333035
2.0983987 11.900123 6.6781449
2.2331159 29.185574 6.9086695
-5.3874731 32.480556 6.9337621
7.3041725 33.520962 7.3137894
-6.6272697 32.099552 7.3360205
1.8369209 24.660574 4.9387026
1.2924058 30.413124 6.7807951
2.1521087 27.712368 6.8550005
-0.61321962 30.889944 6.6598825
1.4906032 31.196007 6.5106449
-0.19558293 31.535686 11.699699
-5.0181651 29.450266 6.8868599
1.8841872 13.424084 6.9331694
9.4392843 32.05022 7.5685968
-0.34337524 11.957028 7.6692061
-0.58282202 13.700385 7.6342616
1.1853073 28.61792 6.3995652
-1.1336778 27.628557 6.4127884
2.5400405 16.710543 5.857379
-1.0524102 30.12365 6.9693532
-0.17492366 28.377764 7.6854362
2.6468892 15.254354 5.4663558
6.5884447 30.26189 7.0804815
-0.64724416 11.405419 2.3882563
-1.2753721 28.280678 6.4167924
1.6261426 26.017441 6.6369619
-2.1206908 27.445808 6.8329201
0.15632543 30.561245 13.13954
-0.32720673 27.436295 7.6657157
0.25199962 25.93375 7.9156618
-1.9546416 13.718861 6.8566847
0.25435191 25.848362 7.8285179
-0.98765934 26.114365 4.4811373
-0.21678007 30.865829 9.5489397
-0.23972034 21.844391 7.6798539
0.22500625 27.793406 9.4899273
1.8928337 24.547462 5.054399
-2.6696806 27.326448 6.8313742
0.21067744 31.065569 10.864174
-1.4300884 25.064095 7.0567775
8.6865253 33.772503 7.3171282
2.5931258 16.400953 5.6874275
8.0521641 31.695942 7.4681859
0.23524886 24.308319 7.4546051
1.9066993 25.198456 5.8112979
-2.5244319 12.782924 4.0615706
4.2885313 31.223642 7.1028476
-3.1592741 28.817156 6.6515994
-1.3310939 28.809555 6.3236876
10.263649 33.66666 7.6748686
0.92764103 14.499682 2.5010605
0.99418384 14.463604 7.5097017
0.54331136 25.148245 7.6152391
2.6139805 31.222961 6.6057024
8.1423531 31.540188 7.229454
0.22864306 29.147762 7.7145147
0.1520661 26.842733 9.9516344
-0.18956114 31.756062 11.193492
-1.194855 26.329493 7.2194672
0.23032081 25.545395 8.1847153
3.2521698 30.554544 7.0042486
4.5162463 29.590801 6.807766
1.5578443 14.958324 7.2005286
5.3447552 30.860252 6.8810625
-1.7961688 15.87039 3.0672915
1.64885 25.746618 5.1217079
-2.8931389 30.758739 6.827826
0.15095031 27.786581 10.864334
-1.296629 19.571342 7.3378806
0.80584437 11.821114 2.4363661
-1.4124537 26.770657 6.5180125
0.65268457 14.733602 2.4247835
1.4644616 21.974758 3.5857954
-1.3067166 27.683365 5.4371281
0.56721562 26.597118 7.598443
-2.4023333 20.92638 4.9361753
1.7455449 21.240868 6.9479032
-2.4225559 20.172226 5.7724824
-3.6927695 32.220062 6.949091
3.0402503 30.820507 6.8433127
2.152751 18.894518 3.7295742
2.472688 13.509682 6.0787868
0.41293979 25.047848 7.6554461
0.27513206 28.13975 7.8231297
-2.6547003 17.753508 5.1885295
-0.103598 34.437347 15.465816
2.6133709 10.076575 5.6481476
3.1425509 30.211498 6.9977388
2.5148592 19.328159 4.7995458
-1.143819 22.681717 7.379549
1.3429271 23.060537 7.2312026
2.6641359 15.072659 4.7451625
-10.384955 33.633179 7.528132
1.4481421 27.959843 6.0087018
0.29391223 19.876129 7.6748042
-0.21517959 17.045818 2.4269292
-2.4300714 15.438594 3.9064898
-2.0748658 12.024417 6.7073689
-0.1784496 31.034592 7.9468446
-0.026463946 11.402876 7.7004113
1.2351196 14.678766 2.6460519
4.0957055 32.089783 7.019526
-8.0701647 33.136093 7.462029
0.45164523 26.318504 4.309854
-3.353591 31.284559 6.6793094
-1.2659626 20.335749 7.3458781
-0.13019827 33.600731 14.029354
-0.4632026 31.973518 7.5611563
-0.24587205 12.723233 2.32411
1.0318997 28.453943 6.381341
-2.2569675 20.358334 4.2330055
2.9644573 30.717331 6.9542227
-2.5303502 15.041304 5.9079828
2.5472512 16.569244 5.8351746
-0.44042337 10.505886 7.6596508
8.47715 33.126141 7.3082762
1.5577884 11.802654 7.2010417
-0.11361365 28.576086 7.6914258
-0.016800407 24.061913 8.5135622
0.26663572 21.276779 2.9107399
-0.11842918 34.061893 15.049306
-0.090940133 32.216438 15.697474
2.0799015 17.742699 3.4414406
6.9364057 30.058142 7.2204947
-2.6838794 15.705574 5.0699978
-0.63070124 26.682791 4.4819584
6.6937423 32.5005 7.3284187
-1.6861804 23.747093 4.3476171
0.12153001 33.973404 15.295938
1.3764864 14.97096 7.3143973
-8.8276415 32.697506 7.2794886
2.1073477 21.322336 6.4345865
-0.00045076705 34.114071 12.978588
0.245765 14.150923 7.6788921
1.2405207 16.980225 7.3876276
-1.2426395 26.440197 7.1614509
-0.21490237 30.249847 10.981669
-8.3618116 31.521429 7.4752674
2.2190576 22.503418 5.0257735
3.6690276 29.604004 7.0450068
0.77304494 24.462948 7.5495181
-0.13228409 32.065197 6.077065
-0.12282464 26.638973 7.4546051
1.077848 23.62364 7.3998919
2.2028639 13.139659 6.5484147
1.9911679 30.293194 6.7824135
2.1977553 11.772409 3.4414721
-3.0231051 32.030243 6.7138438
-0.57254779 15.703212 7.6375694
-0.16359286 30.148582 12.668446
2.4515171 19.924755 4.6935582
-0.85045832 31.756233 6.6621938
-5.2809625 29.148075 6.9687109
-2.2166312 17.08997 3.5718889
2.6372888 15.546677 4.515172
-1.82565 13.004174 6.9812107
-0.47115952 12.457104 2.346293
2.3375382 26.92366 6.7265153
-0.40804803 24.465052 7.6604242
-1.6857209 19.857159 7.0454636
3.7508473 30.859253 6.7046962
-1.1678599 24.663679 7.3179493
2.3186221 20.882498 4.5538321
-9.9984856 32.611443 7.6343904
2.0117919 31.524361 6.7888136
-4.9122 29.847832 7.1553235
2.2602005 22.256868 5.1033406
-2.2594507 16.909235 3.6389868
6.5027599 30.156404 7.2691202
-1.0008228 20.80855 3.0454476
0.21645516 30.121679 10.936825
0.10990848 32.486378 15.640405
-4.0042753 28.114389 6.8837795
-2.0379777 13.078986 6.7531776
-1.0299956 22.169743 3.3555541
-2.4986765 15.072451 4.0385609
-0.99586511 25.979351 7.3988419
-1.0283253 27.193218 6.751184
0.76504278 21.950493 7.5644503
-4.8354311 28.627949 6.9916267
-2.6162376 17.997366 5.4114056
0.24464239 29.602665 9.1988125
-2.2195418 22.449316 4.9819303
1.9024651 15.979293 6.9184589
0.10200023 34.356804 15.020241
-0.054731578 23.293646 3.3840766
-0.11647686 14.535452 7.6918221
-0.21955465 30.436964 10.551083
0.55880076 22.203459 3.1866133
-0.57460725 31.798773 7.477747
-4.8519597 29.80994 6.844408
-0.23294665 29.822388 9.9042263
0.13572749 32.780449 15.089517
-0.15215817 32.347984 10.76556
1.4893963 27.000671 6.508173
6.0039172 31.051342 7.2779107
1.8594754 19.46476 6.8879871
6.6474199 31.621925 7.3446093
-5.0572414 32.455582 7.1152902
-2.5520287 12.660665 4.1525478
-6.8598332 31.239819 7.357193
0.15841953 31.338161 8.2238073
0.095461905 30.777039 14.307961
-0.059562877 32.098606 15.884436
-2.6406035 17.768417 5.3198333
-0.36435884 30.627165 7.6334238
-2.1780794 21.513988 6.2759447
0.11127087 21.626747 2.9771628
-0.24213961 28.691486 9.4313745
1.5226671 25.761961 6.875639
2.4848561 12.80142 3.9468946
0.19180632 22.408859 7.6845951
0.18610483 27.676922 10.2141
6.6494508 31.582285 7.029561
0.21237348 30.418257 11.07892
-2.6175051 11.440905 5.6345172
5.6582155 30.030359 6.9498405
-4.6943398 31.109241 6.8105211
2.6632333 16.284248 4.8369465
-0.32830101 16.008039 7.6714082
-4.5902777 31.02858 6.7980909
-2.1314526 28.767181 6.5184088
0.96077925 23.060448 3.5531197
2.5548048 13.565084 5.841217
0.6085369 19.433718 2.733623
0.66912568 18.158997 2.5862417
-3.1701255 30.426979 6.9976406
-2.4517009 15.465126 6.1142912
0.0070154043 29.53269 5.2617664
2.5676327 15.778322 4.2916083
-9.4563789 33.653328 7.6051826
6.0866804 32.537083 7.2517037
-2.3353853 12.821276 3.6672976
-1.1148702 29.778585 6.1449032
-0.12899724 33.147198 15.487518
-0.11932003 28.773396 12.142227
-0.1756027 27.259462 10.023647
0.096756116 29.5285 13.102167
-4.1098981 29.180325 7.0657568
-0.24591827 29.094158 9.3523598
-1.9195135 10.103336 6.9002919
-1.43979 24.62755 7.0845032
0.29683468 26.215004 4.2384367
1.4449706 28.065481 6.3351817
-5.0147758 29.349712 7.1335583
-1.3585826 27.097576 5.2451749
2.1744814 20.355122 6.3931837
-2.2984629 18.030508 6.3594246
-1.8442266 23.074724 4.3419871
-0.18643486 30.905552 12.414165
-2.122071 28.628851 6.5192804
2.3172569 28.904938 6.9121981
0.13064103 32.784935 15.292269
-6.2328243 32.496765 7.0124912
-0.50809759 13.718679 2.3541329
-2.3875625 20.966928 4.819119
0.283066 21.036594 7.675621
0.1572924 27.044361 10.088605
-0.19794664 27.080677 9.5028362
0.19921541 31.185713 11.625361
-6.9936666 32.210945 7.3730469
-0.7266199 11.298658 2.4123342
-2.082664 14.17597 6.697752
-1.8097939 21.406229 6.8580866
0.16014339 29.116873 11.890485
2.6500118 12.499593 5.5249557
4.4259505 29.042559 6.8218327
-4.3577738 31.455318 7.0986762
-3.4259415 30.584263 6.6657057
-2.3927078 19.692276 5.9573665
0.12881197 32.208443 14.983967
-2.5025108 13.724731 3.9952571
-0.63426912 26.691067 6.3792334
-0.9989512 23.433437 3.6717386
2.8145242 29.837978 6.9687047
-2.4177418 11.314615 3.8213515
0.75427932 15.275887 2.471926
-5.6293979 30.222834 7.2244916
-1.7062609 17.499889 7.0802178
-0.12517166 32.666054 10.895147
-2.6561859 14.894763 4.6519279
2.6787422 14.338242 5.1923146
-1.5582075 30.267006 6.8200026
-0.78435659 26.918489 6.3919773
-0.65460873 27.141193 6.3606186
-0.99691021 26.917191 7.3549819
1.3359139 14.539331 7.3358421
-2.6534791 10.888554 4.513175
-0.48017573 34.039455 7.274662
-2.1709483 11.488485 3.4088049
0.25854295 27.984892 4.7958193
0.24910128 28.962084 9.1985569
-0.39766458 29.267178 5.2470622
1.9290435 13.225853 6.8884578
-2.4507959 30.079281 6.9270744
-1.7366819 23.027493 4.1804476
1.9730767 13.694507 3.1711416
2.2464972 16.763374 3.6093459
2.3350241 15.878693 3.7427144
-1.8855665 22.705402 4.2771659
-1.2888744 31.527393 6.6816874
0.84543252 25.227739 4.1035728
0.10416456 32.78318 10.721636
5.7305512 30.231543 7.2319713
2.2072909 19.705948 4.0034571
2.4898825 31.782494 6.6470613
0.32847625 15.238108 2.382678
1.7888061 25.751705 5.5608282
-0.119927 28.758181 7.6907587
-0.75914645 26.680313 6.7075009
-8.0848036 32.642185 7.4813042
-2.0838315 22.717533 4.6814866
-1.1477842 27.17642 6.4371433
6.3095474 31.44046 7.311316
9.977562 34.180519 7.4636011
1.7103088 10.286772 2.9270477
-0.091002539 28.466652 12.120013
-0.66998148 28.470158 7.5229445
-2.5894513 27.797255 6.6245131
7.2503395 30.900627 7.3686895
0.63306522 26.03047 6.4385676
-0.93408042 29.063776 7.3003922
-1.9601384 17.999081 6.8294792
-1.588102 27.147797 6.214838
0.56347495 24.789692 7.6114845
2.8791595 30.639517 6.6072369
-2.2405958 19.188251 6.3677073
0.17382005 31.171227 13.007572
-0.80393457 18.118488 2.6210904
-0.27434269 26.057138 7.4776897
-0.24345025 29.694267 7.4546051
-0.24796116 29.170023 9.1780138
0.46746504 31.050705 6.4511127
-0.11826005 31.393093 7.5976334
0.14197001 33.14513 13.049809
1.997952 12.419924 3.1979947
3.1333525 29.322487 6.6329718
0.20705986 29.36797 11.042616
-0.85596204 27.745073 6.7609806
-1.241164 23.544415 7.2975292
-0.36627054 29.089279 5.1800108
-0.65295684 27.847822 7.544879
2.3064005 16.388536 6.3803468
-1.9107186 25.136446 5.8605661
-0.60995984 28.060331 6.7425666
1.0312629 10.630723 7.4981403
-1.0848839 12.67669 7.4700785
-0.79671198 27.9622 6.7585812
0.95713407 14.601499 7.5208673
0.0047106971 29.088718 13.093603
-0.50765604 23.539829 7.6347418
0.24741738 26.506546 8.3137512
0.13905808 33.300858 13.468206
9.8174191 34.119099 7.6203065
1.5849509 18.492756 7.1596222
-1.5701554 29.845352 6.4540639
9.8114376 33.486374 7.6519299
0.11716808 26.950418 10.424853
-2.9092569 28.10574 6.6507645
-1.5857409 26.265926 6.6686811
8.8695965 31.626247 7.346941
2.5493865 14.641838 4.1861315
-1.7986783 25.186512 5.1740093
2.3530922 18.078754 3.9284954
2.4435532 17.649256 4.0045915
0.16272904 10.889095 2.3159232
2.0187507 24.176453 5.3004427
2.2660811 27.045198 6.6559353
7.4870138 30.648876 7.2072043
0.16002211 32.660454 13.66169
0.82429564 10.527984 7.560935
-1.7422361 22.262804 6.8800106
-0.99377 18.189024 7.5095778
-0.30649489 29.594458 5.3252554
0.1038733 33.557049 15.992182
0.23086089 25.985859 8.401597
-2.539016 15.553308 5.8744092
-1.6184471 20.190403 7.0924115
-0.19855475 31.135603 9.1003914
0.096970998 32.308792 15.686225
0.071300514 15.686946 7.6962719
1.9925976 24.448643 5.4104781
5.3041425 29.921022 7.1865435
2.6726387 16.268021 5.1532602
1.0101031 29.820423 5.9365077
0.55575615 15.044794 2.4053211
-1.0074073 28.540899 7.2580085
0.24300659 28.075766 9.1946392
5.7110023 30.536499 6.931314
0.26140743 28.58268 8.5427589
1.5007309 15.525784 2.8153863
-0.53525478 26.375116 4.3535132
8.4511852 33.346031 7.4957652
-0.57293802 12.282458 7.637198
1.984457 23.828613 6.2520027
0.22302356 29.983665 10.535145
1.2562757 20.237392 3.1042607
-0.27284062 27.456999 7.8953748
-0.76427746 20.812449 7.5693631
-8.1807451 31.027981 7.2927856
-0.21058735 26.041241 8.6830168
-2.5207386 19.322845 4.8525734
-0.12367249 30.748867 13.905767
-0.72372198 19.31279 2.7519717
-1.3432908 30.231436 6.4366479
4.2130527 31.261442 7.0111599
6.637536 30.759361 7.0525436
0.17262833 32.099201 13.056581
0.36723718 27.216606 4.5746984
1.9059302 30.398302 6.8552308
-1.4609782 27.648338 5.7897568
-0.28540474 33.202503 7.6309018
1.3308108 22.322142 3.5744171
0.81901485 26.211498 6.6634746
2.3108253 17.435448 6.3700027
0.20990491 27.700314 9.7937241
-3.2855022 29.389362 7.0072207
-3.3396697 31.525915 6.6896935
-0.48715201 33.901756 7.3392005
0.72366476 26.77696 4.5612464
-0.17218345 24.65547 3.7326493
0.11081912 27.900293 11.398689
1.6423823 16.160969 7.1307592
-0.11381918 25.424417 9.1092958
0.23341367 24.839701 7.7695875
-2.4662309 16.614542 6.0848165
-4.6305904 28.804062 6.8874779
2.1171293 17.921686 6.6409822
-0.79857457 17.278816 2.5467808
-0.10949425 33.021801 11.439878
3.4635451 32.078972 6.9320784
2.6739542 11.543441 5.2818022
-0.82029408 14.942188 2.4825375
0.54385066 32.228882 6.3343759
-0.24074675 29.838182 9.3522272
8.1477966 33.272106 7.4624219
2.3458922 14.513437 6.3128281
-7.157835 32.990181 7.1245766
1.6937888 11.552177 7.0894275
0.93775773 29.727833 5.7890334
-1.512727 29.026518 6.8409386
1.7517478 17.005898 3.0646319
0.057065763 21.186869 2.8787057
-0.32708833 20.491112 2.8170331
-1.1620064 28.823997 5.7291164
0.0054990887 13.649084 7.7024846
0.44436142 11.365577 2.3436542
5.3673878 32.703732 7.1311007
0.86002821 24.096821 7.5088229
-1.509462 12.53933 2.7622142
0.17490858 29.146366 11.673889
-0.64742303 29.054565 7.5229483
0.15314811 22.541597 7.6168923
-3.4218092 29.629793 7.023097
-0.40040976 27.751692 7.6414328
-5.0263181 31.616489 6.9590101
-3.9272337 31.075682 6.7270894
-2.3828731 17.836092 3.931818
6.7482715 32.700531 7.3242636
-1.3522509 29.462305 6.4230833
0.99969035 15.635645 7.5086775
0.46177977 23.485756 7.648922
-2.6625352 11.378527 4.6051478
-0.37087584 20.622072 2.8379579
-0.17647949 31.998924 10.919447
-2.4195831 16.687244 6.1719041
-1.746261 25.315054 6.5357795
-3.3658798 31.065216 6.9984398
-0.23062083 27.06966 8.9791794
-2.5836306 17.022671 4.3958645
-2.4087286 21.076021 5.1213059
-1.0408943 13.859083 2.5178514
-1.5492365 29.193523 6.844955
0.19759811 13.138317 2.3193567
-0.14151092 31.634546 8.5634212
-4.8693781 29.549667 6.8606472
1.1349493 26.847815 4.8679953
3.7874851 30.311718 7.0641012
-0.10818752 32.002438 8.9003277
-0.22754854 29.334488 10.226836
-0.91575909 18.828335 2.7469132
-2.218117 21.64073 6.1388874
2.0517209 11.098173 6.7361112
0.18614486 28.809971 11.164727
-2.4970009 10.485781 3.9711401
-2.6589842 17.661699 4.9233189
-1.1036663 29.109314 5.7607355
-0.77090466 31.441074 6.2885485
-6.5998774 32.977295 7.075923
1.9046085 23.922821 6.456562
-6.4994326 32.873108 7.0572944
-1.7482049 18.185703 7.0336089
1.6206579 15.994318 7.1486273
-1.5030437 12.201853 2.7569466
0.055125602 30.889057 14.759792
-0.93536502 26.848356 6.4193535
5.4353495 29.391373 7.1513181
-1.2078866 24.124916 7.3042288
9.5050802 34.149483 7.5633268
0.17001939 25.962067 9.0983782
-2.0637612 19.513214 6.6328716
4.0213566 32.384502 6.9770837
0.45027858 24.061258 7.6495919
0.37376729 22.173517 7.6666584
-0.77655709 28.88274 7.4457083
1.5982511 26.585518 5.4958391
1.7417669 24.448864 4.679224
-1.1906354 30.407894 6.7689962
1.677599 15.835292 2.9682493
0.19509253 25.925381 8.8056183
-0.19937256 25.793434 8.6737537
-7.1886516 33.079128 7.3544292
-0.47961631 25.696585 6.453187
2.0114539 15.483425 3.2733188
-1.2712655 29.980112 6.6988921
-3.1150224 31.022953 6.6438828
-2.501513 14.333838 4.0172515
-1.0366874 31.371544 6.6689224
3.2445843 27.940781 6.922709
0.18568988 25.356892 8.5888014
2.5853727 16.278004 5.7137403
-0.095177844 34.522129 15.201196
0.71624613 18.646952 2.6638725
0.5213564 27.666826 7.6053057
1.0949534 17.333118 7.4646864
5.7886467 30.039902 6.9680634
0.010449779 30.952293 10.631805
-1.7142758 31.014174 6.8024082
-0.38282079 18.137888 2.5241258
2.040863 12.594807 3.2502856
0.12953019 33.715508 14.802305
-2.6743598 13.933111 4.7550359
-1.9077532 16.749651 3.1890655
-1.2883745 24.631657 7.2201743
0.11592097 31.491707 7.7993765
-9.3329782 33.379875 7.6018133
2.4513063 19.547033 5.7939081
1.7173332 18.795086 3.2291846
-0.45830873 17.282869 7.6589613
-2.0190325 18.148041 3.4370375
-0.72754675 21.138119 2.9907756
1.2132809 28.252785 5.5432444
1.4243706 17.730057 2.848597
-0.91978037 13.970108 2.4828658
0.78626913 29.229851 7.4218125
-5.5087733 31.45668 6.903657
-5.0043025 32.249893 6.8834453
-0.042511977 32.885944 6.3284402
9.1599798 32.493889 7.3263912
1.5922431 22.128616 3.7342129
1.4695845 15.364006 7.2655764
1.1230575 28.366428 7.1306362
2.3123822 21.26759 5.9344697
-3.8859057 30.138445 7.0726204
1.8100402 22.295948 4.0373573
7.6340623 32.740307 7.4309297
-8.3496866 31.662601 7.484148
0.10906799 33.48658 12.709264
-0.5194422 23.923775 7.6292858
5.2357893 30.792936 6.868803
-2.3096309 27.819284 6.8715019
-2.0976176 19.980108 6.5674481
1.9296944 23.731949 6.4358592
8.807662 33.774139 7.5071692
-0.0074572498 20.315115 2.7633932
4.1001644 28.402063 7.000401
2.528502 12.395699 5.927927
-0.2063258 24.80175 8.1644869
2.679913 10.124543 4.7816353
0.18866768 19.086349 7.685174
-0.11072491 32.190208 7.6908154
0.20060956 30.929342 8.4984713
0.52574986 18.59654 2.5998838
-1.0843631 25.157475 4.2134767
-2.4826326 29.582199 6.5493007
-6.5856066 31.403919 7.3359513
0.5548383 32.676044 7.4350724
-0.22012492 30.223431 10.61812
-1.8326849 25.41441 5.4461823
-4.6828117 31.466795 6.8464355
7.8776031 31.096924 7.2213349
-4.3548164 31.323862 6.8033314
-5.696734 31.947674 7.0267086
-0.080472842 18.601759 7.6955938
2.5334833 12.996323 5.9115057
-0.47343716 23.156223 7.6470003
9.3971348 33.842293 7.5840287
-2.1872563 31.54785 6.8110657
-4.8163056 31.037426 6.8226585
-0.24544311 29.919506 8.1322384
0.98880827 27.133419 4.8516421
0.16675231 32.255428 13.403015
-0.14458451 32.503662 14.640191
-0.1971761 27.483072 9.864295
0.17152946 11.1465 7.6861277
-1.3463246 27.641253 6.4458733
-6.6766605 31.8797 7.0354228
-2.0015094 21.05076 3.9136693
9.3718042 34.294678 7.4915066
-0.49453869 22.223312 3.172142
-2.1244018 29.204937 6.5111461
9.3658495 34.117161 7.5451212
-2.2793357 21.069656 4.4817657
-3.6074064 30.93935 6.6905165
-0.21825188 29.410421 10.62094
1.5766994 24.363918 6.9335594
6.7440305 31.216551 7.0480499
-3.0476735 30.24247 6.9874611
-0.46597299 30.900877 6.6268902
1.2741992 19.515497 3.014575
2.3414173 20.652939 5.952147
-0.15310587 32.596119 14.210297
2.2640862 21.740816 4.740612
-7.0677166 31.691931 7.3838835
-0.22341278 30.162518 10.415539
0.73826671 13.285908 2.4158673
-2.1167078 30.508268 6.5237799
-6.7946072 30.614023 7.3229342
-9.270133 32.966351 7.3320966
-0.16927502 23.967594 8.1284504
3.6065447 29.058222 6.7036304
-0.48335478 27.914877 4.8357234
-6.5069818 31.963902 7.0189996
-1.8095623 18.39484 6.9790621
-0.23104832 19.605701 2.6952806
-1.7806343 28.08913 6.8473449
0.629538 31.990204 7.4061556
-0.21318832 30.972857 9.4285488
-0.12122038 32.603748 10.618576
2.6809702 27.527723 6.8595042
7.3453088 32.900043 7.3862114
1.0760639 29.240536 7.0970917
0.13390952 33.565193 14.845943
-0.6789723 10.754634 2.3978806
-0.6447475 23.699097 7.5923777
-1.3184152 30.733316 6.7685475
3.5027816 31.664248 6.7118082
-0.28006634 27.152447 7.5230036
2.5888038 30.518463 6.9348836
-0.051421136 22.44598 7.8948889
0.84962559 17.710342 7.5544682
1.2581607 11.907528 7.3774652
6.7580523 30.013266 7.2390742
0.20748775 28.876339 10.684171
-4.6711211 32.264034 6.8581328
-0.13940808 33.281548 13.404551
1.4466569 12.114184 7.2767167
0.23325092 28.793764 9.8074665
0.098366499 31.114304 14.599064
1.2112257 14.437555 7.402493
9.3631001 32.214386 7.5821509
5.859509 32.750328 7.1970072
2.213922 21.02154 4.294486
-0.060654555 12.003986 7.6970448
1.5967636 11.623236 7.1690545
0.97910935 11.385856 7.5139637
0.4270848 14.209942 2.3610888
2.60711 18.119602 5.4222298
-1.5659806 27.004892 5.6839995
0.1906116 27.047085 9.5932589
1.3880857 20.381924 7.2772741
3.6578536 32.089317 6.7653484
-1.8829024 12.853648 6.9342241
-2.593961 18.406757 4.8613605
0.16180833 32.635727 12.410933
-6.0999985 32.084377 7.2030802
-2.0515842 23.985901 5.3709326
9.5241194 33.728664 7.6087875
-8.9764566 33.003986 7.5695801
-0.10972638 34.210159 7.1047325
8.7058487 32.809479 7.2670975
0.82743895 10.170281 7.5599813
-0.88744438 11.398917 2.4611187
-4.2797337 30.617165 7.111557
-2.2756281 29.548443 6.9164181
-0.2369249 29.52602 9.7694569
-0.176728 29.43446 11.839111
0.1177367 28.839893 12.222467
-3.0134778 30.832829 6.967382
0.87113857 14.259691 7.546742
-0.19492763 24.417698 8.1008015
-7.5164199 31.386307 7.1444921
-1.8240705 10.930653 3.020411
1.1750271 13.862906 7.4218798
0.43115497 24.567595 7.6529131
-0.46597302 30.031603 6.3510046
-1.9036506 13.631667 3.0872858
0.33468094 23.466515 7.6705666
-7.5018497 32.795296 7.4113789
-0.21087879 29.157051 10.79902
1.708672 30.035969 6.8495045
-6.6296549 32.002277 7.032824
-2.5522304 16.813519 4.2854319
5.3795695 31.812544 6.9134674
5.3386593 31.925632 6.8974724
2.1558123 21.110682 4.2046514
2.5511968 19.162413 5.2884789
3.9003448 28.434786 6.9977245
-1.2124459 28.080517 5.4567041
1.6888635 10.082155 2.9094477
-7.8998218 31.12505 7.4197536
9.296484 33.771137 7.5755653
-1.0516734 26.368389 6.6860175
-4.7185278 29.716633 6.8303552
-1.5947738 27.050673 5.8889847
-2.2095609 18.97521 6.4436855
0.85597146 27.594208 6.3702245
-6.6660814 33.211586 7.2581954
0.1766777 31.459221 9.0122385
2.8005104 31.795586 6.6710739
-1.827781 25.109863 6.3461413
-1.8017113 28.832169 6.8645124
0.061203707 28.366678 12.19879
-1.295494 26.634834 6.508965
-0.75417387 13.679208 2.4236979
-0.81521446 12.873997 2.4392085
3.7859509 30.439983 7.0620627
-0.11133934 33.815781 13.688845
-7.6324 33.238716 7.1818571
-2.121608 18.767561 3.6666503
-0.09910693 34.00489 13.858073
-0.10093088 31.803715 8.3438911
1.0317407 10.801374 2.5048897
0.27833021 27.842077 7.7466884
0.23186833 28.892603 9.8975306
-0.18307219 31.783251 12.468863
-0.96679628 28.258949 7.3181734
0.27070129 28.152431 8.1165991
5.6409636 32.794136 6.9863558
-1.8241944 25.607054 5.6642289
1.2159468 28.217159 7.0160503
-6.4626637 30.192894 7.2719254
1.8492283 25.408112 5.5664134
0.48420551 21.643162 3.0225694
-0.14798236 32.652988 14.559345
-2.5898767 28.546631 6.9270792
-3.9544287 28.280163 6.8213329
-1.2656659 14.566583 2.6597989
-1.1538424 22.29253 7.3803549
-0.21803418 30.552311 10.60088
-0.65677714 22.004967 3.1662469
-2.0060055 14.245982 6.7929573
-0.0967796 32.073162 15.496861
-2.4580779 15.771605 6.1017504
7.1076255 31.364666 7.3811769
3.2198091 28.317078 6.9599595
0.16369125 23.49725 7.8915205
1.7390844 30.055841 6.4754386
5.4089155 31.396658 6.8918238
-0.52746928 27.848038 7.6022568
2.2924724 11.122726 3.5870254
3.6729414 31.731853 6.7313032
-3.6133115 27.805904 6.8578091
-1.7934381 19.860888 6.9510007
0.73272836 21.083229 2.9853234
0.45148492 19.916794 7.6592717
-0.17181212 31.495501 8.9818974
2.3018064 19.129662 6.2613273
2.0349498 21.652691 6.524632
7.7681389 31.55941 7.4413829
-1.1591382 26.275053 6.5206223
4.8973236 29.160288 6.8966527
2.2371426 19.720884 6.3309946
-0.22727957 29.661192 10.354865
1.0210372 29.899529 6.6128325
-1.6596872 20.889996 3.4956779
4.3988895 30.257397 7.1207476
0.93817639 31.239113 6.8712988
-1.7069386 27.25173 6.5229554
-1.033864 28.223602 5.2934761
-7.0642986 32.360149 7.0850492
-0.98613942 28.12858 7.3082752
0.24774072 29.748226 8.9202881
-0.082829438 19.243069 2.6349375
-2.0522337 22.893805 6.3093581
-1.7596948 30.819084 6.5048399
-2.3498054 21.576134 5.5832405
-4.9155993 31.890324 7.1445775
3.6652603 30.14255 6.6856256
-2.2171707 13.998415 3.4783072
4.5299659 32.074966 7.086237
-1.1696547 24.501369 7.3222399
-2.5362823 18.218899 4.4429483
-0.24851802 29.319006 9.0700455
-0.33362186 18.976965 2.6256206
-1.4347281 31.088036 6.4949522
0.26354715 25.686481 7.5592985
-0.11446105 34.216507 15.422904
-0.7871744 25.781431 7.5157599
-0.12813511 25.715767 7.4546051
1.0906382 27.24593 7.2629766
3.5049729 30.818293 7.0269771
-0.069584146 27.45187 11.232882
9.5260553 33.904213 7.5968971
-1.2088405 28.233284 5.525322
3.2430606 31.710175 6.9417315
0.82661146 29.098343 6.3563194
-2.3723326 18.556553 6.1782303
7.1288919 30.532806 7.1515694
0.21903259 28.547543 10.166548
0.57097346 33.585957 7.0566015
2.0578992 19.067308 3.6419191
2.4164672 27.124069 6.793036
5.1541338 32.126839 6.8916121
0.15356626 32.490566 14.245152
-0.34123209 27.971029 4.8107843
-0.91948438 18.429817 7.530962
-2.3166218 30.106861 6.9125595
1.2681412 28.127306 6.934267
1.2696942 18.054283 7.3686504
-2.5385399 19.16737 4.9079099
-0.24415255 26.46722 8.4112625
1.9362817 11.796248 3.1228442
-5.6115055 31.986244 6.9251709
1.8508741 30.232056 6.7950358
-5.827374 32.720955 7.1966276
0.11569354 33.9702 15.817738
-0.5113582 13.27331 2.3502512
-1.4628892 18.520735 7.2577362
-2.0696619 23.751637 5.9643598
-0.19971871 30.23774 11.650153
-6.5803084 32.427803 7.0384383
-1.6330163 30.579699 6.8138075
-1.5293607 14.532415 7.2243919
0.013607192 30.690187 14.711842
-1.4114926 21.817251 7.2190695
0.21090944 31.014654 9.3988419
-4.0706244 29.99786 7.0873175
5.4973292 31.29244 6.8995824
-0.12170425 33.791466 14.179057
-0.46597299 29.951927 6.5245142
2.0658228 10.794303 3.2807009
-0.34404719 33.483982 6.6255808
0.15227954 22.293232 7.5317903
0.068875685 34.28371 13.900108
-0.19616003 27.843554 10.193987
-2.2489467 14.919066 6.4913378
-6.1213927 30.899185 6.9765186
0.23808919 29.038681 9.7045584
-0.19758114 31.491116 10.579577
1.4847715 26.183964 6.8720407
0.89634186 12.25865 2.4638178
-0.7920723 32.00975 6.6477718
-6.6812754 30.394762 7.0798678
0.84365559 31.725868 7.0398521
0.1810478 31.257095 12.752943
-1.5784755 10.707445 2.8188529
0.17564332 32.101372 6.0962954
-4.8361006 29.432604 6.8616366
0.1303528 30.601158 13.667957
2.0856912 22.166456 6.3591318
2.2509689 22.392187 5.1963472
-2.2975602 20.877434 6.0545197
2.3082671 15.749882 6.3790216
2.4431894 15.59843 6.1289735
-6.0025096 30.076374 6.9971304
1.8163391 18.061005 6.9817562
-0.15526299 32.535042 14.086882
-2.1065216 22.596985 4.6902452
-0.11073294 30.797722 10.369289
1.4814211 12.112339 2.7447801
-2.4758763 29.929173 6.9319086
-2.0037839 30.996693 6.8381076
-1.7140366 26.377548 6.0549154
-2.3356438 27.512051 6.609437
1.5478954 11.236189 7.2091608
0.30287522 32.45734 6.2530847
-2.1457238 11.224289 6.6193733
-0.75098443 29.65383 6.7495027
0.62503123 19.138519 7.6173267
0.51628458 18.188908 7.6528006
2.1409452 10.540805 6.625308
2.6905515 12.355963 4.8896766
5.3578649 29.713749 6.9223709
-0.24448128 28.173477 9.1904268
-1.2689078 30.627617 6.4487824
-0.14007474 29.663765 7.6885505
-1.5156059 22.121571 7.1228218
0.14278007 29.244009 12.285713
0.11108464 30.471107 13.850165
2.5726304 11.149729 5.7824526
-1.3393553 22.834639 7.2421417
-3.8316576 30.969835 6.715209
-3.7566452 30.077505 6.6985474
3.1637225 29.894926 6.6279364
-0.26400849 29.319073 7.5406055
-6.6156826 32.775356 7.0624914
-2.5208592 17.109303 4.1950884
-6.8919792 32.273373 7.0651493
7.953618 31.540646 7.2005863
-8.6968241 31.851137 7.5170445
-2.5599456 17.57369 4.3406315
-0.30100831 13.70013 2.3331742
-5.1407313 32.741631 7.0954151
1.8948467 21.155964 6.7664723
4.9846888 31.645088 7.061151
-1.4315779 19.17067 3.0523705
-1.4534776 20.678852 3.2946825
-0.1997758 31.158894 9.2528076
-1.6664619 18.279171 7.097652
-6.0778737 32.905674 7.2089696
2.5890496 14.847792 4.3251004
2.497298 19.673988 5.489397
-2.268327 21.625093 4.6911907
-0.11487579 34.078178 14.844285
0.1463879 31.170757 13.815718
-0.79744315 27.37158 7.4774742
2.5109668 17.547531 5.94454
-0.025040423 32.229919 8.752656
0.15672819 28.828684 11.69612
-0.20163834 31.340986 10.037672
-0.6151154 24.55851 3.7981191
-3.4778948 31.00672 6.9800777
0.1170186 17.792231 2.4545238
-0.16358566 26.444084 7.6870317
0.69313002 14.608252 7.6007605
2.6872051 13.929842 5.1284146
0.34584394 11.820982 7.6689634
-0.6010958 16.721704 2.4706895
-2.1239347 19.612774 3.827311
-1.2873882 23.43243 7.2635674
2.4526992 20.161303 4.8356042
4.5736332 29.775513 7.1277142
1.6161804 12.634563 7.15312
1.1927526 31.379185 6.6897664
0.92029059 26.120953 6.4875879
0.15889688 32.236679 13.979058
10.129971 33.790829 7.4658642
-0.072561368 28.456825 7.6954985
-0.2598384 29.07608 8.417285
1.7186706 18.107368 7.0598392
-0.11243899 32.500202 15.594498
-1.1895553 28.233559 6.799222
-2.3478329 21.010443 5.8644896
1.3131801 11.67993 7.3480577
6.5922604 31.509892 7.3379698
6.20748 30.907764 7.2935143
-1.8524363 11.217148 6.9592266
-0.20538698 31.249033 10.664511
-1.3138047 20.335215 3.1476049
1.1388229 15.473598 7.4411211
-4.751699 28.944809 6.8941593
0.28502911 11.288421 2.3279655
2.6759257 16.874325 5.0891953
-0.24979906 24.770224 7.4854565
2.6050241 18.489019 5.1972246
-0.068457216 10.431934 2.3066406
-0.63863444 27.448215 6.7363563
-1.4542106 20.945057 7.2101665
-0.085980035 32.474709 9.7367477
-0.16071245 30.380951 12.903776
1.4657345 27.955013 6.1787949
0.68138641 10.029703 2.398613
0.11805755 31.790577 14.902666
1.8937953 15.591794 3.1379476
-3.9928825 31.048676 7.0748453
1.9354111 23.001883 4.4845161
0.085503139 34.134373 13.820012
-0.48278359 18.981094 7.656364
2.1639419 19.63258 6.4741764
-0.37639162 21.78257 3.0418391
2.6000323 12.229246 4.3107982
0.65945965 21.43391 7.5990081
-1.8338313 21.222679 6.8389721
-2.0768991 12.2006 6.7048435
-1.7065175 13.645279 2.9259229
-7.5420446 32.455429 7.4268942
1.0392385 30.42469 6.349349
-0.043007057 29.844894 7.4546051
1.1487213 12.248116 7.4359589
2.4387875 15.006954 3.9073715
2.2399271 15.564732 3.5564072
0.6699326 13.085782 2.3951387
-2.4926786 14.224277 6.0391245
-1.7716446 15.466115 7.0269079
