# .PCD v0.7 - Point Cloud Data file format
VERSION 0.7
FIELDS x y z
SIZE 4 4 4
TYPE F F F
COUNT 1 1 1
WIDTH 1492
HEIGHT 1
VIEWPOINT 0 0 0 0 0.5 0 0
POINTS 1492
DATA ascii
5.447031 0.078819588 1.2520039
4.1158915 1.3219959 0.41754347
5.3510084 -0.18469203 0.81326807
5.3008156 1.1595011 0.95420307
5.0092206 1.5687739 0.88361901
-0.77417159 0.3036634 1.2708112
0.023824029 2.0350413 0.64726901
-5.371882 -0.94055778 0.95758283
5.2993765 -0.69776398 0.4494532
-0.7849102 0.36401233 0.38340104
4.5689383 1.337234 0.21490484
0.4111641 0.63342631 0.85410368
0.61721426 3.0267391 1.0912793
4.5876231 -0.88027692 0.94534796
5.0464287 0.2400876 0.807423
-5.0676832 0.33521822 1.408911
4.9501314 -0.3099176 0.83385241
0.11820801 2.3630817 0.72057915
-4.5226707 0.27870077 0.83261108
0.87932873 0.23044133 0.53334385
-5.52565 0.99562234 1.0683923
-5.7792788 -0.082420871 1.041785
-4.5947456 -0.43774387 0.34205115
4.5977259 0.10814951 0.66153491
4.7658477 -0.47883037 0.58371019
-5.0445814 1.4660207 0.6192342
-4.2665515 -0.60992426 1.3543139
-4.3394079 0.13321644 0.33063108
4.5169644 0.0012624962 1.2957151
4.4826531 -0.33397239 0.7917819
-0.51585233 1.1966642 0.73173881
-4.6209278 1.8634088 0.91489112
-4.5472479 -0.90542197 1.0179336
0.69138014 1.9943621 1.2131941
0.39896461 0.97121638 0.56648904
0.10856629 2.1289451 0.64726901
-0.0056840582 0.78447145 1.129729
-5.6134753 2.1142647 0.41823274
4.373683 -0.53040689 1.3894532
4.7636642 1.39256 0.8150506
5.1119542 -0.30798674 0.65265214
-0.43886554 -0.031891465 1.0401756
5.4126458 -0.69276857 1.3030573
-4.9162455 -0.52671677 0.88361907
5.1119547 0.57139677 0.6256277
-5.3225479 0.98641205 0.71235228
-4.1159735 1.1200299 0.71376395
-5.7447562 2.1725001 0.74874765
5.6868267 -0.24154069 1.393023
-5.7489924 1.458395 1.3549294
4.27425 0.92636085 0.7455548
-0.46706727 0.81182367 0.17822331
0.16850807 1.387922 1.2356793
5.3117023 -0.44067889 0.40051049
-4.9810705 1.7980461 0.87010843
-4.135148 1.7056936 0.20852552
-5.6448278 -0.54954195 0.16214427
5.7067742 1.3326133 0.60155666
0.88098019 2.5745916 0.34017336
-5.7748723 -0.83839601 0.98626459
-0.77966559 0.94371343 0.41377831
-4.909709 0.64207709 1.2844536
5.1119542 1.3551333 0.70192087
4.4990759 2.1805072 0.93562096
4.1255412 2.0199783 0.44459152
-5.7801461 -0.70510781 0.60291147
5.5371485 0.13826257 0.33558148
-0.78433514 2.4675252 1.1851621
-5.6129045 -0.98321444 0.8656742
-5.7810059 1.9517026 0.44429296
-0.74038672 0.74557072 0.19198506
5.7722931 1.1538882 1.1311889
-5.7592435 0.22922879 0.68276876
5.601645 0.26077086 0.99575603
-4.6209273 1.2963749 0.81490999
-4.1660428 -0.41145936 1.0526826
0.02100914 0.51383692 0.87617528
4.8215876 0.96714443 0.79304463
5.3043098 -0.84661496 0.9896915
0.68573856 2.8839021 0.27638745
-0.78126198 2.7122002 0.60298324
5.5992336 2.1806593 0.98043072
-0.78366268 0.26141071 0.48672116
0.66079956 0.2473847 1.3403589
4.4274807 1.4825443 0.12942621
5.3032598 -0.62731206 1.2292055
5.7799578 1.4604172 0.39324579
-0.7462315 0.87476128 0.25757688
-5.2766571 -0.11805836 0.8843112
4.3252058 1.0625694 0.36773428
-5.4245996 0.26033729 0.97273529
4.8468766 -0.59478998 0.87641656
0.53279871 1.1509063 0.54374599
-5.0445819 0.64925027 0.79711473
-5.2766571 1.7021301 0.56528163
0.211098 1.4438438 0.77550125
-0.74436474 2.10096 0.28235018
-4.2470217 1.9723611 1.2642341
-0.14660899 1.8279281 0.72451854
-0.77375793 2.894861 1.1291423
-0.058557 1.0191329 0.87208003
-5.7795086 1.2311904 0.59113169
0.63040245 2.4096782 1.4140968
4.6021562 1.9408588 0.69135255
-5.5530367 1.0276535 0.41047111
0.41315264 0.096260361 1.1158805
-4.8805141 -0.27710131 0.96393394
-0.71524769 2.5010662 1.3878118
-0.051724516 1.3179996 1.1942192
4.2051702 2.0053339 1.225319
-0.709979 0.70792663 0.62376261
4.5465374 -0.0017780385 0.25753412
-4.8317776 0.49694458 1.0425459
-5.6397128 1.8292401 1.3559469
5.600533 0.20726538 0.43175581
0.46712363 -0.06569092 0.66366076
4.8446078 1.0599892 0.87870449
4.1180816 -0.43466038 0.39440072
4.7879663 1.6059765 0.83601171
5.3238354 1.0784576 1.0970618
-4.6073446 1.221642 0.92749476
-4.5975847 -0.74098474 1.1020131
0.37583399 0.45786434 1.0059257
-4.1633358 0.19532691 1.0510447
0.72172296 0.030157274 1.1491581
-4.3892946 0.30422845 0.78114665
5.3010626 1.0444076 0.78233427
-4.1718526 -0.057861749 0.82197148
-5.3442621 2.1607385 0.91750073
4.1591973 -0.60395819 0.21762592
5.6190157 -0.078040667 0.18080176
0.68978971 0.54442644 1.4168704
-0.78475791 2.1139512 1.0699962
5.2767229 1.7501832 0.59667468
0.71409088 1.1919742 0.71468687
5.7545981 1.6855798 0.4941293
5.4162483 -0.96139288 0.92848629
-0.0024048761 1.727967 0.88361907
4.5984173 -0.52428752 0.28703767
-0.72763479 2.3809834 0.84091234
-5.3024416 -0.67647672 0.34900275
4.3343277 -0.95071936 0.99975264
5.0157776 1.0451868 0.65114057
-0.709979 0.68755555 0.86956316
0.84791219 2.0290742 1.1756899
4.6209941 -0.37529945 0.50930786
-5.7647724 1.7621421 0.22914137
-5.7808361 1.5018401 0.36327279
-4.8895359 0.60391605 1.4374608
-4.9105005 1.4812131 0.88361895
4.7542806 0.56743699 0.67152452
-0.37682146 2.4877224 1.3951055
0.143759 0.7812376 0.70754713
-0.31893378 1.0298433 1.0875962
5.7741613 -0.85908377 0.59620702
0.37583399 0.86211205 0.66618776
-0.52725112 1.8223139 0.67750973
5.5583162 0.95941937 0.98371434
5.7774057 -0.73150504 0.41262797
-0.34837559 3.0673819 0.8617366
-4.424129 0.017940678 0.23212886
4.1258268 1.5584131 1.3243091
5.1119542 1.5163907 0.74097002
4.2584553 -0.6813761 1.314465
-0.27989599 0.18039389 0.78019685
-4.3067074 1.868453 1.3413553
4.5997348 -0.8429544 0.81076705
-4.8645124 0.41710627 0.81136596
-4.3890681 -0.91384768 1.076616
-0.28912988 2.599824 0.69889784
-4.4838567 -0.61724293 1.3438137
-5.2766571 1.8504063 0.64457357
-5.6469402 0.98614776 1.0310543
0.015351698 0.72033346 0.78770077
-4.4301958 1.5933965 0.7041989
0.46305183 2.7918806 1.2965899
0.88107204 2.2735543 0.3771925
5.3031511 -0.19153632 0.36198851
0.88035047 0.069828823 0.85716087
4.9420619 0.55823433 0.64726901
4.6209936 1.5336931 1.028614
-5.6350927 0.2869398 0.64318997
0.40060526 0.18866007 0.50809604
-5.3212724 1.8034637 0.23032644
-0.43976516 0.93678367 1.2799653
0.82431251 2.1709707 0.22915387
0.48146394 2.0461659 0.29838401
-5.7779474 -0.83385563 0.58423924
0.37583399 2.2796836 0.8347404
-4.1167221 0.060536552 0.84340775
0.39889985 0.3294813 1.1813104
-5.6578074 -0.98064286 0.72250283
0.075020894 0.98284221 0.88361901
0.118208 1.840369 0.85762662
-0.27989599 0.5909248 0.64968777
-4.4166026 0.94645667 0.9340694
-0.52103335 3.0129378 0.4195205
-0.17037342 1.4241796 0.69559479
-4.6209278 1.486058 0.49841106
0.8791576 2.3458865 1.1421225
-5.5523787 -0.88809627 0.41145805
4.586566 0.11565207 0.43771183
4.1676569 0.20335047 1.0403068
-5.5737724 -0.97241616 0.60982239
0.63158429 3.0794535 0.97459531
-0.11169297 1.4865997 1.2949176
-4.5782309 -0.025083788 0.28065941
-0.079302989 1.8882979 0.60402918
-4.5284748 1.1906365 1.2630082
0.58860922 1.9687967 0.35466513
5.7394671 -0.94506603 0.86926538
4.754281 -0.39094692 0.67871398
-4.5210953 1.5203001 1.3938208
-4.7549348 0.32791886 0.80636311
-5.7809658 -0.56437582 1.2215399
5.775187 1.1142508 0.48355117
5.7793217 1.8003147 1.068032
4.6209941 1.8017116 0.79857922
-4.190877 -0.24830711 0.51213187
0.10077532 2.6651101 0.64726901
5.0783849 0.3930797 0.58228302
0.14375898 1.907221 0.6072914
0.8488524 1.0911549 1.0149434
0.87808859 0.17145245 0.41568881
-4.398241 1.8254559 0.1714709
4.5986133 -0.27862939 1.2441664
-4.2405996 1.2094663 0.2400194
4.119628 -0.53818405 0.53190517
0.41012198 0.86240304 0.99125379
0.805884 2.3186512 1.0148001
-0.038094904 1.5917273 0.64726901
4.5991192 0.16083059 0.81434762
0.77254391 2.5337522 1.3990796
5.5023212 1.0290959 0.40903428
-4.9901838 1.0979097 0.88361895
5.4205837 1.6259254 0.84427643
0.211098 1.1931349 0.79205656
5.2767229 1.2392552 0.73252434
-4.8215542 0.28650147 0.71109915
-5.7264032 -0.58235836 1.3368672
-5.4904556 2.0520916 1.1993552
-4.3459282 -0.25829729 1.4102194
-5.3468041 1.2365875 1.2813492
-5.1315656 -0.25378239 0.8561914
-4.897583 0.72065437 0.64726901
-0.14660899 2.5271811 0.67155302
5.5680737 1.378772 0.150488
5.7816687 0.084086046 0.61795753
-4.7645464 -0.50025243 0.81597406
-0.14262393 0.92232168 0.80962801
-0.70297837 2.7312665 1.3355007
0.86928272 2.8957171 1.1316262
0.48435518 0.30096245 1.3491123
0.63424069 1.1646472 0.9729743
0.39928722 2.9724002 0.65546805
0.10056978 0.71986473 0.88361901
-0.30975416 1.107374 0.74449646
-0.69179106 0.73283309 1.3721607
-4.1159687 1.9013796 1.07924
-4.2018833 0.22690128 0.50620353
5.1119542 -0.46626183 0.70435476
4.1909099 1.6452818 0.60327423
-5.7067404 1.4134617 0.82969594
4.1909099 1.802147 0.82341266
4.5958967 1.0897012 0.99294102
4.6209941 -0.19936302 0.47375658
-0.27989599 0.84299517 0.99216902
-0.70997906 2.5456176 1.0404875
5.0446482 1.243904 0.60727155
-4.5951014 -0.78202581 0.74659777
-0.30353159 0.7387172 0.34998965
-4.575109 2.1007757 1.0201404
4.7816281 -0.29848179 0.83858764
4.754281 0.38550031 0.63786864
5.3111138 1.6954134 1.1291963
-4.778594 1.7980461 0.62470746
5.6252937 0.17611201 1.1465973
5.2767229 1.5402216 0.9825241
5.7067747 -0.49563223 0.85289371
-0.57277048 1.8780981 1.0425904
-4.4702992 -0.98461068 0.79294038
0.19740874 2.0390975 0.58228302
-5.4381428 -0.52991819 0.15395805
-5.0553789 0.55144596 0.7052027
-0.3646602 1.145709 0.93452507
-4.4300241 0.2349923 0.48644447
5.300941 -0.74618435 0.56923229
4.548336 -0.25260285 0.85570276
-4.7579861 -0.52780718 0.59153569
5.2767229 1.5685335 0.395648
4.6809754 -0.2228044 0.84335756
-5.7529655 -0.62158537 0.87339157
5.4305534 1.6461393 0.13283047
-4.1195612 1.8862591 0.74933314
0.40415877 2.6651549 0.39802533
-4.190877 1.7645845 0.67004091
5.7649946 1.0191197 0.61738169
4.1163316 -0.085624568 0.36568218
-4.7542148 0.11399543 0.78494984
5.7612939 1.6752355 0.75812662
-4.5391173 1.771502 0.18456209
5.6486316 1.3672608 1.374203
-0.27989599 0.33497548 0.49008465
-0.44584513 1.8835052 1.0434731
-0.27989599 2.7196698 0.73711705
5.3034015 1.0787815 0.54087341
-4.4464669 1.3676605 0.15778998
4.5948491 1.043288 0.88037795
0.83959019 0.80893874 0.63088328
4.2200899 2.184371 0.60910356
-4.5637035 1.3940911 1.3440089
4.6209941 -0.4063808 0.70874494
-4.4290242 2.1752958 0.54302156
-5.2766571 -0.70845026 0.87513566
-4.2266445 1.9018492 0.22553997
0.37583399 0.31884113 0.99527305
-0.60874325 0.98883653 1.2427549
-5.6127963 -0.95280677 0.98576546
5.4596672 1.8105241 1.3680322
0.017864935 1.2734755 1.0796984
5.6264286 0.95432919 0.58542508
0.74657512 0.95577037 0.27497968
0.48192394 -0.020348735 0.50046694
-4.6209278 -0.27819765 0.57426172
4.4792814 -0.27811641 1.4017936
-5.7398281 0.99088544 0.58701909
-0.62958145 0.85034198 0.20038892
-0.71068662 2.3234825 0.1609432
5.4412146 1.0363641 1.1298957
-4.5260491 1.0516584 1.1210839
5.3261318 1.2995806 0.24049787
5.6144614 2.2170093 0.77946043
4.5411744 -0.28729594 0.15523873
-0.2727164 0.61691976 0.84726524
-5.677279 -0.10938729 0.17723688
0.78653622 1.8678695 0.56006193
-5.0798345 -0.56018388 0.58228302
5.0663085 -0.15768164 0.58228302
-4.1158066 -0.45141983 0.33951604
4.3161154 2.195765 0.93281806
-4.190877 -0.547984 0.72408313
4.8484468 0.37538776 1.4272588
-0.78126198 0.53343201 0.42372996
-4.9878402 0.78231233 0.88361907
4.918324 1.1763148 0.64726901
-0.09949749 1.7651644 0.58228302
5.7655935 2.109622 0.95547628
-0.58425093 2.612607 1.3987696
0.4018321 1.017309 1.0301669
-0.28724688 0.42576641 0.40707755
-5.7067409 1.3714008 0.70880473
0.81241769 0.5228858 1.38819
5.2986403 1.6155252 1.2745018
-4.5851517 -0.50465643 0.22300789
5.1119537 0.10037467 0.77502394
-5.7817202 -0.78916609 0.82695872
-5.7676163 -0.63867337 0.74899167
5.5066471 -0.5277701 0.14758451
-0.53846085 2.3193579 1.4012291
-0.56643438 -0.06236162 0.97960222
5.7609472 -0.3641001 0.87306309
5.77809 1.8982792 0.65457541
5.2767229 1.646716 0.87100434
-0.49686223 -0.098401383 0.7810654
-0.56056684 2.8149097 1.3148887
4.3517661 1.4783372 1.4098914
0.16404682 1.2228863 1.4839854
-5.7777891 1.8979075 1.1749371
-0.00053896382 1.165395 1.4872551
0.019936372 1.4785576 1.3250995
0.43548316 2.7033482 0.21132404
4.9405508 -0.59743702 0.71938026
-4.6209278 -0.044019204 0.60369891
-0.30472764 2.8964541 1.0744554
0.118208 0.38191116 0.87334067
5.781744 -0.48604983 0.36417276
4.4051433 1.1200817 1.2345371
5.6178846 -0.59703755 0.17275046
-4.1536121 -0.88374406 1.0376625
-0.27989599 2.3843956 0.98125511
5.3019838 -0.85863131 0.6327908
-0.78126204 2.648237 1.0365325
-4.1195612 -0.53525072 1.0306103
5.7067742 -0.34858853 0.50926471
5.3008418 1.5506865 1.1501678
-0.08737509 0.59736538 0.58721375
0.45791182 3.0222774 0.50212985
-5.2766571 -0.02499491 0.58017188
-0.058557004 1.2308435 0.84049946
4.119628 1.9044179 0.76598346
5.3167491 1.6779447 0.68753755
-5.0445819 1.6433684 0.73837399
-0.4142732 0.047026068 1.1573474
-4.529603 0.045126639 1.2537202
4.8650174 1.322681 0.88361901
0.60321349 -0.052952863 0.52607924
5.0500841 0.59070885 0.81107819
5.2767234 -0.52303278 0.76182735
5.7301049 2.1764126 0.85468602
0.88053572 2.0251727 0.58759272
-0.085644908 0.6024332 0.81200147
5.298768 -0.05134932 0.38092729
-5.4778023 1.1981463 1.2970958
-5.3799348 0.9858489 1.005784
-4.8865256 0.87615657 0.88361895
4.1160483 -0.78860116 0.87802577
-4.9641404 0.15565987 0.88361901
5.3816862 -0.89236468 1.0774018
0.88015914 2.6028614 1.2486687
0.81011283 2.1763041 0.81441069
0.86382115 0.37326261 1.3121957
-5.019032 0.66625065 0.66211009
-0.63744229 1.0814235 0.40556508
0.4108192 0.52791244 1.1507214
-4.9852138 0.56795019 1.0978556
-4.1195612 1.5573928 0.43116954
0.51492155 2.1896675 0.19363391
-4.8422985 1.3372567 0.84793007
0.40166873 0.78791976 1.1365371
0.38156915 2.8229728 0.62924325
5.6901374 -0.69347113 0.23992863
-0.3238357 0.11843586 0.37453955
4.4312091 1.3322065 0.1673384
-4.1189442 -0.031135855 0.58103281
-0.27989599 2.2558608 0.89632177
-5.6597714 -0.72830421 0.25912321
5.5123215 2.210242 0.87619811
0.42129466 1.9684274 1.0823753
-4.5893416 1.296555 1.0605286
-4.7542148 0.81562859 0.70953715
-5.2977777 -0.77663273 0.51049668
4.4976573 2.1651518 0.54898822
-4.9307384 1.6057067 0.69909877
5.3067222 1.2011135 1.1866324
4.9443345 -0.28130698 0.68929917
4.1168222 1.9626222 0.65026438
0.118208 2.2310214 0.74685395
-5.5883617 -0.56520462 1.3765483
5.0446482 1.7355248 0.75246161
-4.5995712 1.0846808 0.65509009
4.9201384 0.58383363 0.99411803
-5.4093795 1.6543707 0.67893708
0.39854717 2.2133284 1.1715803
-0.78470528 2.879498 0.85730547
-0.47495079 0.67276478 0.13282011
-5.7780237 1.3619854 0.52918732
0.87720001 0.23912376 0.69975495
4.1164341 1.9568169 1.0614626
-0.080804393 0.85718262 0.59380168
-0.37144569 2.9138978 1.2028242
4.9048195 0.90094066 0.88361901
-4.9302864 0.96627998 0.64726907
-4.1160345 -0.046449456 1.1158066
-5.5987692 1.9112223 0.21842569
-0.72474861 0.50573123 1.3825831
-4.7542148 -0.078407615 0.59539503
5.3533487 0.99991059 1.0025065
-5.2766571 -0.26390293 0.89266485
-0.0070954133 2.2209463 0.88361901
4.2351379 1.4188967 1.3873262
5.2767229 1.4663635 0.59864926
5.6273575 1.9448646 0.24464777
0.88060546 0.16669357 0.94695574
-0.077766009 1.5006557 1.480293
-4.6209278 1.6107674 1.1397884
-4.1178913 1.6748654 1.1406285
4.5997219 1.4393469 1.2506452
0.37583399 2.6672473 0.53180242
4.8375988 0.58238852 1.2209523
5.3153043 1.9354734 0.32627529
0.62299055 0.8910538 1.3208253
-4.190877 -0.13510849 0.5849188
-5.6549292 -0.1879165 1.3870199
0.86660188 2.47894 0.84162998
0.78676236 0.18957788 1.2897221
4.2899532 2.1079292 1.1303539
-5.2766571 -0.5620501 0.93735486
-5.3109798 1.460362 0.39889336
-0.78483796 0.093656071 0.79882038
-5.3563404 1.9711998 1.2356954
5.7067742 -0.26352432 0.59910655
-5.2766571 1.6306648 0.4571434
4.2153912 2.2051287 0.78199816
-4.1161761 1.1781591 0.60683972
5.7067742 1.7763624 0.59567386
4.6209941 -0.025322732 0.9206714
4.119628 1.8098923 0.97673213
5.2985468 -0.59283715 0.345797
-4.1290374 1.5776566 0.69909918
0.7632243 -0.013159907 0.47165909
5.3706341 -0.33786219 0.75261718
-0.33546773 1.8775361 0.63366985
5.6020088 1.1196308 0.30298612
-4.5376778 0.95175529 0.74545002
-5.781014 1.0835037 0.88472104
-5.3074455 1.5287195 0.21057969
5.7067742 -0.52081174 0.70123404
-4.4658308 -0.31985316 1.4090266
5.4293566 1.9381034 1.2937067
5.6660604 1.2306962 0.22893111
-5.6956987 1.7178345 1.3794599
4.8423319 -0.19240883 0.74699676
0.87794042 0.91718781 0.75229067
0.043950461 1.3094141 0.80615538
5.1119542 0.80466032 0.61520582
5.2767229 -0.38171017 1.0115191
-5.3007288 1.1301181 0.66824228
0.86621493 0.60146689 0.2024533
4.7149792 1.7261332 0.8128317
-5.7774115 -0.10783273 1.2360127
0.16515186 0.89209241 0.81866693
0.118208 2.4465919 0.83797377
-0.35469237 1.1288464 0.56696868
-0.026960965 1.8648748 0.88361895
5.1360807 0.4197619 0.71722269
0.81066006 2.1882267 0.66217089
0.87172771 2.947449 0.50370258
5.4240961 2.0634165 0.3628822
4.9250517 0.38582861 0.88361901
0.83658832 3.0092721 1.0399182
0.082020253 1.463383 0.96363324
-4.4910069 1.1974462 0.25372827
5.7551527 2.0615888 0.4447214
5.0190978 1.1334919 0.7981475
-0.58602405 0.28388894 0.17749405
-5.0445824 0.79908305 0.76923251
4.4426155 0.96220666 0.55690926
-5.2981005 2.0694745 0.85001218
-5.39959 1.6493384 0.85397613
-4.8215542 1.4661906 0.71033466
-4.1177244 -0.84701937 0.87235147
5.050694 0.59534574 1.4324853
4.5859146 1.5538946 1.1511271
5.3166037 1.9997602 1.1524655
5.3416963 -0.87463695 0.47222835
4.2126117 -0.73153323 0.26734835
-4.1191812 -0.6510455 0.34860078
5.3016248 -0.47764549 1.1276603
0.7204383 -0.067888208 0.58734477
5.4418716 1.2746036 1.3385179
4.4282455 2.1396379 1.0700181
0.211098 0.90747827 0.66211605
5.2767229 1.4758683 0.72858745
-0.079302996 2.2797453 0.64089912
-4.2679262 2.086849 0.38567322
-0.78475481 0.58146381 1.1909041
4.9310789 0.24132118 0.64726901
-4.5890269 1.4224765 0.39764911
5.6040111 1.1489068 1.2573986
4.5900211 1.2352965 0.99641836
-4.3822021 0.27958485 0.59554237
-5.7734699 1.8746874 0.31239438
-5.7693648 0.1590527 1.0236566
4.1250505 -0.62615627 0.85042316
-4.5988455 -0.49847198 1.2284818
0.88034946 2.1503108 1.1392739
-5.2766571 1.7184969 0.95975715
-4.153316 -0.24067986 0.72786957
-0.38630587 3.0397189 1.0269698
-0.66479909 3.0490055 0.51077414
5.1714644 -0.29386795 0.84049815
4.5895462 1.5340922 0.36920899
-0.72447228 2.4681025 0.14977291
0.41357711 2.8509846 1.1910176
-4.2932091 -0.85546607 1.1634554
-4.1180668 -0.69893003 0.9184643
-5.7251635 2.1541505 0.57781267
-0.72363329 0.30592513 0.60750115
4.9164352 0.098546803 0.64726901
0.45263118 0.58038759 1.3821378
-5.6102929 2.113991 1.1197605
-5.6004996 1.29875 0.18135908
4.1182013 1.6698241 1.2741057
-5.7725754 1.0223362 0.71642816
4.1176524 1.6980696 0.39668375
-4.7542148 0.9471342 0.59872353
5.3143358 2.0764582 0.50272554
-0.3027176 2.0842097 0.48749083
-4.1963234 -0.747087 1.2468474
-0.27989599 0.43223515 0.87968397
-5.10431 0.42369854 1.4966948
-5.7806892 1.2228873 0.98111528
-0.0012033386 2.4558663 0.88361901
5.6683216 2.1379404 0.48220903
0.88021749 0.94680876 1.0655395
-4.4145131 0.92769057 0.70939773
-4.5993567 -0.60989577 0.34993696
-5.7780242 -0.0089032082 0.73546213
-5.1119208 -0.22386864 0.60820746
0.30161899 0.68517637 0.69725394
-4.6487594 -0.31849852 0.82917881
-5.7816248 -0.45372361 0.32592198
-0.78287005 0.21153703 0.95272803
0.62337101 1.8245411 0.88159937
5.7496896 1.5602372 0.47261104
-5.541975 -0.16867428 0.14483672
-4.5298758 -0.14360586 1.3577611
0.14899258 1.4350516 1.0643573
5.776659 1.6603364 1.2904131
0.80288976 2.8714807 1.2417407
0.052931413 2.6366184 0.76088011
-5.300559 1.7349598 0.3444421
-4.6209283 -0.53348261 0.90412903
-5.2766571 -0.45667145 0.64506131
-0.65424663 1.1749763 0.63084537
0.805884 2.6517968 0.91209662
-4.1364365 1.5159034 0.85845429
4.754281 1.5544515 0.60461396
0.47656614 0.72133744 0.78527743
-4.2567935 -0.047084522 1.3349249
-0.16197453 1.3049738 0.7395609
-4.9988761 0.46011877 0.64726901
0.67842257 0.33308873 0.15845957
0.40419912 2.0527236 0.67747593
4.357996 1.6181374 1.4145133
5.2263956 1.5923913 0.70532525
-5.5082788 0.21837096 0.44915962
0.39844674 0.053792022 0.90021658
5.1119542 -0.088370338 0.7532931
4.6209941 -0.26072919 1.0013144
-4.508132 1.5269637 0.13905711
4.7562184 1.7869645 0.71592903
-0.51647216 2.5115662 1.414337
-4.4589305 0.18360485 1.1357456
4.1441269 -0.086399145 0.23946004
4.14399 0.033620268 0.31821147
4.769228 -0.15592533 0.58228302
-5.1034889 0.58877295 0.58687508
4.1706491 -0.82510829 0.38705525
-4.8215542 -0.35837609 0.77445304
-5.599103 0.076909617 1.2573649
5.3405728 1.0686719 0.42419979
0.85784942 0.51221043 0.66349792
-0.61803395 2.1896534 1.3520634
5.7789788 1.9410313 0.78522074
4.2981443 -0.83120733 0.34315497
-4.210958 -0.94579935 0.57222068
4.1362553 -0.31996477 0.86937892
0.59660071 0.99618721 1.2380151
-5.3654432 1.741351 0.75894582
-5.3093791 -0.32055005 1.1601747
4.1177082 1.1889402 0.67698938
5.4835958 1.943666 0.23982918
-0.30796868 2.0463634 0.70526516
-0.51864362 1.1600878 0.54940909
-4.313127 0.23740698 1.0497459
-5.321219 0.13222586 0.42878914
5.3195453 1.804179 0.23437965
5.7237306 1.5698528 1.3858882
-0.70997906 2.4767461 0.58592176
4.8423319 -0.40935504 0.84525687
-0.62488353 -0.069408365 0.59258163
-4.5976124 1.0831631 0.94589597
-4.6209278 1.8608568 0.7412051
0.37583399 2.7990887 0.82639301
-4.3783064 0.27684051 0.95104539
-4.3986354 -0.75711083 1.2662547
4.8215871 0.42684865 0.73248446
-4.7446594 0.48894268 1.4048996
5.3270173 2.086422 1.0641934
-5.3501744 -0.42619908 1.3751111
5.0606699 1.3937775 0.58228302
0.17093906 1.688403 0.58228302
4.1177168 1.6711957 1.1465789
-4.7542148 -0.037232295 0.73444432
-0.27989599 0.48176247 1.0151349
-0.6081897 1.8756222 0.501311
-5.5360823 1.6229064 0.12235481
5.2983718 -0.17795666 1.2323527
-5.2766571 -0.33260339 0.61799055
-0.097048968 1.0307608 0.58228302
-4.5624747 0.11854963 1.1539189
-5.0190325 -0.078364581 0.82821429
4.6209941 -0.16521659 0.64961791
-5.7674155 0.22087742 0.81577146
-0.78420442 2.1884818 1.1910942
5.3010626 1.9202553 0.92568147
4.1325078 1.5225729 0.6969161
-0.30100861 2.9625838 0.69566238
5.7647824 -0.25969201 0.74587739
4.8898845 0.35822302 1.1924973
5.7778959 0.060296562 0.43941519
4.8215871 0.2988753 0.70291972
-5.6097789 0.30034304 0.80064857
-0.7069608 2.9482157 0.37373585
4.1159363 1.9712021 0.92051911
-5.3518782 0.98290426 0.59325093
0.62151545 1.8560218 0.54202366
4.168788 1.980836 0.31311539
4.1909099 1.4153534 0.63228744
0.78587449 2.3929088 1.3961775
5.4962478 -0.65843177 0.20306128
-5.1119208 1.5223024 0.72285211
0.71641701 3.1071832 0.81765759
5.7518191 1.7186906 0.19596472
-5.7805834 0.0020454391 1.1395588
-0.77138042 0.3969731 0.51913738
5.7780905 -0.57366192 0.95763826
-5.7275133 1.4976083 1.0514696
5.3111219 -0.10071252 0.25734138
4.5960083 -0.40506431 1.2071427
4.1182885 -0.85557723 0.71314025
4.5935898 0.017821264 0.54105163
-0.70997906 2.6733155 0.90914369
-4.5790195 1.9026017 1.2450314
-5.7234201 -0.31948018 0.1529858
0.83774292 2.704103 0.6009168
-5.3009343 1.8919111 0.35409826
-4.190877 -0.48662013 0.93086213
5.2767224 -0.23119336 0.91258174
4.1165695 1.4468856 1.2477357
-4.291172 -0.90036058 0.43855745
4.1165552 -0.71398342 0.43990955
5.4853778 0.93476063 0.64001602
4.7946196 0.47616857 1.1585286
4.4839354 0.93699288 0.82602799
-0.43698376 2.7198474 1.3583207
-5.3044686 1.9843608 0.6714285
-5.019032 0.92743343 0.86775601
-5.7816572 -0.68715364 0.47201794
5.7810159 -0.21012184 1.2519722
-4.173635 0.031565569 1.254298
4.5803299 1.0366683 0.54242575
4.2884321 1.9552679 0.24944815
-4.842299 -0.12321684 0.80982906
0.39722824 0.40978095 0.29077572
5.7815909 -0.36907136 0.3085978
0.87968481 0.82517815 1.0635729
-5.2766571 1.4570878 0.85663557
5.6111717 -0.42485148 0.12786108
5.1119542 0.12855546 0.60395151
4.4602165 0.16336437 1.1600215
4.116436 0.068736687 0.82879347
0.47952631 0.094103746 0.33281645
-0.70445299 1.1733931 0.81309903
4.5864763 0.032954451 1.1902629
-5.7124615 1.3773003 0.17902091
-4.1587925 1.7478521 1.0007781
-4.4292626 1.9503927 0.24677461
0.81331611 0.17553537 0.27437502
0.15598235 1.0149449 0.58308363
-5.3032885 1.6559093 0.23383066
0.048931912 0.63296437 0.68108571
0.87544048 0.86429328 0.34055626
4.6209941 1.3979974 0.62131202
-0.54512012 0.54494375 0.11780868
-0.015354175 0.92225736 1.1811155
-0.78502756 2.8435745 0.53753501
4.1419015 1.4716051 0.81854367
-4.3162036 1.1399273 1.2511098
-5.7419405 1.4727198 0.4899973
-5.7816014 -0.28808182 1.1901774
-5.0329022 0.45983911 1.0075564
-5.7817721 -0.41295776 1.1925586
-0.51734924 0.0040529761 0.41524923
0.67789376 -0.099950358 0.76830125
-4.4192519 2.2065821 0.88811517
0.59891748 2.2864473 0.1467202
4.1909099 1.380414 0.94618106
-0.78406799 2.8643253 0.67421746
4.8933134 -0.41658258 0.64726901
-0.16798691 1.3548402 1.2680837
-4.7092319 1.591611 0.70720607
-4.6059856 -0.20359424 0.41054255
-0.16259949 1.367847 1.4189032
-4.5245647 2.0687592 1.1472101
5.7118554 -0.86773837 0.43094224
-0.78126198 2.37904 1.0854868
-4.1420112 0.24241786 0.76083738
0.88039863 0.068827733 0.72395754
4.1781645 -0.05419172 1.3120673
0.15407094 1.5896463 0.81595492
0.211098 0.32400513 0.78508997
-4.1195612 -0.61741197 0.61819398
0.16489205 0.49644125 0.58228302
-0.75584924 3.0471511 0.66733623
-4.3832264 -0.10778988 1.3731455
4.6209941 1.5089166 0.55623168
-5.0616746 1.5830512 0.58228308
0.37583399 0.50546217 0.57692814
5.2767229 1.3747034 1.0220335
-5.3006115 -0.041393176 1.1044636
-4.2128525 0.27264896 0.62473947
5.5417318 -0.89961016 0.43212342
0.41329235 0.75824618 0.23456353
-0.66010517 2.3740971 1.3997489
0.43416992 3.0684016 0.78977484
0.42153347 1.045732 0.45277828
-0.27989599 2.5009151 0.51580119
4.8542156 -0.18823594 0.88361901
0.82004529 0.42182186 0.50252277
-0.054858334 1.3255606 1.32616
5.2767229 1.6249748 0.58485591
5.3315597 0.19531652 0.50456899
5.7729712 -0.77001095 1.1147525
-4.2333326 -0.14675266 0.16360992
0.805884 2.6649656 0.75558698
4.5202847 0.24633163 0.98163903
4.322629 1.390139 0.14732243
-5.3049212 1.7421598 1.1542487
-0.27989599 0.41224757 0.69686037
4.1523242 -0.23550844 0.78266382
-5.6284943 1.2076046 1.3012962
-5.1119208 1.3539811 0.80563951
-4.5913491 1.7758845 0.41019177
-5.0663662 1.2094638 0.58228302
-5.7698345 0.005090354 0.32575035
-0.15717167 0.62223101 0.68553269
0.66865712 0.49948448 0.12333839
-0.44459674 2.222662 1.3660562
4.4523883 2.0273812 1.224344
-4.6209273 -0.38481644 0.69098496
5.6005459 1.6768804 0.13008535
4.8423319 0.086806625 0.85820001
-4.7542148 1.551475 0.59714419
-0.36784297 0.63760805 1.383194
-4.1293793 0.20527005 0.90597665
4.9034228 0.39884502 0.64726901
-0.25030559 2.5036023 0.83733463
5.6410112 1.5117757 0.13085109
4.754281 0.84447563 0.7433356
-0.08417204 1.1797818 0.59042525
-5.5389256 0.94418609 0.93577671
-0.41828245 2.4852777 0.13089325
-5.2766571 -0.50306898 1.0592057
-4.5985479 1.1466897 0.478466
0.064768121 1.2479166 1.3957551
-0.69588345 -0.012804256 0.48578566
-5.4265437 1.5678118 0.12645942
5.7579122 1.055809 1.0397619
-5.1044836 -0.49862957 0.81307983
-4.4505987 1.6644136 0.13174844
-0.40957141 1.8779347 0.52058595
0.81452429 2.0486994 0.30952138
5.6543179 2.0755913 0.3785834
5.7067747 1.4422857 0.53857535
5.3008666 -0.36991531 1.2170373
-0.30631486 0.056674547 0.98914707
-0.4275915 2.6274235 0.73865902
-5.3024611 -0.56040382 0.3875708
4.9271917 0.37551266 1.0107069
-0.14660899 1.992167 0.77319288
0.8790977 2.0932455 0.89062023
-4.1195612 1.3374717 1.0054305
4.1364417 1.7091442 0.20762272
0.42619783 0.1777949 1.2325859
0.88097841 2.6914132 1.134154
4.577539 -0.43337128 1.3444872
0.14826329 0.62585264 0.59080273
-5.2989326 0.095646404 0.56985044
-5.4282656 2.2060769 0.83569539
-4.3221674 2.1476877 0.47690415
-4.20263 2.0690885 1.1505246
-5.3230467 0.18241866 1.0281204
5.5849471 1.7993355 0.1624532
4.5893078 1.824623 1.0534731
0.39777598 2.0215507 0.51942933
-4.7720065 -0.2180254 0.58228302
-0.27989599 2.6597576 0.9507302
-0.775823 0.94523704 1.1536169
-0.48679927 1.0485617 1.1776001
4.1166019 -0.048795093 1.1682858
0.7834962 1.1738032 0.88506347
5.0081925 0.13620627 0.88361901
-0.30136591 0.95692241 0.48253337
-0.38700598 2.3633649 0.14614694
0.54517996 3.104991 0.82450211
4.3683648 -0.18716127 1.3977557
-5.2766571 1.8550797 0.77805829
-0.4581258 2.5579836 0.85342568
-5.4747214 2.0670855 0.35729238
4.2237406 -0.50898099 0.15506716
0.211098 2.6048219 0.68134362
0.38031086 0.18991464 0.89954704
4.3446031 0.20673481 1.1094493
4.8481498 1.4764081 0.88224542
4.1817355 -0.34279168 1.3893836
4.2189088 1.2752786 1.3290203
-0.30857152 2.0989363 1.1850392
-0.7817167 2.7522678 0.33414829
0.37583399 2.3828859 0.76115865
-4.7872448 0.23465946 0.58228302
0.0048651882 2.542562 0.64726901
-5.4229369 -0.82689017 1.1867315
-5.3037157 1.827145 1.2469156
-0.78359526 0.93985778 0.85961336
5.1119542 1.5088816 0.61255753
0.015131084 2.3772433 0.64726901
4.6209941 1.4007444 0.47560999
0.13041683 1.3502696 0.9411366
-4.5978327 1.9537544 0.49887222
0.64795125 0.088921353 1.2276373
4.9473724 1.7026598 0.88361895
4.4360352 1.385336 1.3848683
5.6024628 -0.89297819 1.1120629
5.1119537 1.1686119 0.71772414
0.50881529 1.1791894 0.68192971
4.4606986 1.7361133 0.74628729
-4.6209278 -0.65131104 0.75635219
5.5205622 1.2193731 0.22105464
4.3495002 1.2444627 1.3282461
0.39850703 2.8970594 0.48840368
5.4959588 -0.84794641 1.1739547
-0.14660899 1.3016422 0.59785473
5.3965235 1.7410665 0.75825822
-0.27989599 2.8454292 0.77257258
0.87144148 0.028213851 0.58567083
-4.1159787 -0.16613758 1.1874174
4.1175594 -0.62563109 0.34043226
-4.3358417 1.6382095 1.4117043
4.5991998 -0.046164174 0.37893215
-5.6214862 -0.064435057 1.3479521
-0.78450215 0.78717828 0.34942788
-4.7871418 1.16521 0.58228308
-5.7780247 -0.26804358 0.43784934
4.5840616 -0.79676121 0.42002064
4.1166315 2.0694644 0.79423451
-4.8850179 -0.075299039 0.64726901
5.77844 -0.81117779 0.99653971
5.5430598 1.6658278 1.4096479
-5.368371 -0.044795204 1.3141501
-4.5764017 1.0347497 0.53100336
4.9327049 0.87047386 0.64726895
4.4626117 2.2036483 0.660689
4.9173007 1.798046 0.75502145
5.2767229 -0.43987775 0.65901935
-0.50238669 1.9345798 1.1411966
-4.597662 1.6136768 0.30592453
4.754281 0.049158573 0.76288319
0.40709931 1.1018008 0.66257095
0.72274601 1.0995394 1.1034254
-0.13524699 0.728526 0.81700498
0.805884 2.5007291 0.55954576
4.7851539 0.24663031 0.58228302
-4.5996552 0.1456117 0.66583449
4.119628 1.541162 1.0788939
5.2996535 1.1982461 0.48047295
-4.4842134 0.96497995 0.57325989
5.3095746 1.2170074 0.33012506
-0.30370513 2.4471169 0.31284013
-4.6209278 -0.29163194 0.98157525
-0.78449667 1.0195873 0.65796542
0.87748909 2.7498107 0.33196545
-5.0288558 0.45007253 1.3326324
4.6209936 1.8890002 0.90562689
0.069334462 1.252594 0.64726901
-4.4783859 -0.88729393 0.43142128
-4.1164837 1.2344106 1.1276178
-0.31937224 -0.018839445 0.86153507
-4.5945535 -0.16414817 0.26022428
0.69121325 1.9085898 1.0977615
-5.341403 -0.93860316 0.6359849
-4.7047343 -0.27122965 0.68512625
5.3054066 1.8854491 0.49246091
-4.268682 0.93887281 0.8984828
4.1967468 1.4211311 0.16012096
4.4504652 1.0594354 0.37774256
-4.8689766 0.59539962 1.1544886
0.40025824 2.1063309 0.38300362
-4.3952293 -0.31283918 0.12152082
5.3027983 1.40508 0.36318529
-0.058557004 0.41590375 0.76463103
5.7067738 1.5621878 0.60412055
5.5723352 0.050822854 0.25650257
-4.413137 1.752578 1.3874527
-4.1192245 2.0364716 0.99705565
4.5980802 1.4599059 0.26377982
5.3644629 0.95469427 0.68855453
-0.27989599 2.2194111 0.66500199
-4.1866465 -0.37637183 0.14773676
5.2767229 -0.35785502 0.87119901
-5.58251 0.15779692 0.36206633
-5.7817693 -0.78434289 0.69784576
4.3669343 0.27901053 0.59209323
4.6091576 -0.16281971 1.1017407
4.5986538 -0.10252152 1.2180662
5.2767229 -0.12557837 0.73668689
5.6841302 1.2311431 1.3043599
-0.13759837 2.3870025 0.58629638
4.4916754 -0.18629822 0.71785378
5.5833511 1.9187584 1.3147051
-5.4755659 1.8627478 0.19342786
4.3132777 2.0833998 0.37486964
-5.4680357 -0.71613872 0.23961589
-5.2766571 -0.44146535 0.76643854
5.7735658 1.8183105 0.28256425
4.1178918 1.2030677 1.1271284
-4.5879507 1.7319847 0.79868925
-4.7873688 0.31771022 1.3163536
-5.772923 -0.24320182 1.3093981
-4.9611597 0.27668756 1.4366724
4.7642393 1.2367052 0.81562716
4.2430062 0.28012511 0.63171977
4.5831814 -0.70052862 1.216154
0.32804975 2.4942803 0.83347261
-5.3002815 0.089218184 0.91586339
-5.2766571 -0.58333075 0.81138569
4.6209941 1.4021953 0.94787657
-0.7844184 2.6000371 1.2366784
5.7067747 1.4135623 0.9965893
4.5986214 1.9881631 1.0053318
4.6209941 -0.58406609 0.79198635
5.3008671 1.426621 1.1939346
-4.5769477 1.7716906 1.3166064
5.3994722 2.1624804 0.54066998
0.63944411 2.1160326 1.3163259
-0.58155656 3.1048236 0.67211723
5.3246155 -0.41728657 0.18226746
-5.2766571 1.4183023 0.6117661
-4.2242718 1.54177 1.4031061
-5.3076134 1.92975 0.95263356
-4.365612 1.4941053 0.12455375
0.2103021 2.5934157 0.83875436
4.8278832 0.4873895 1.3248326
-0.70997906 0.51956284 0.54473042
4.5761786 0.98348361 0.76154339
-0.33051732 0.01444367 0.50675452
-0.27989599 2.6096313 1.0791038
5.2767234 -0.71764767 0.74560177
-5.2766571 -0.29479119 0.40391019
0.41899347 2.093401 1.2159193
-5.0672598 -0.080891818 0.58228302
-0.77100348 1.9039886 0.85958797
-5.7659636 2.0701377 0.49461085
-4.1991663 -0.037685804 0.22214068
-4.1828375 1.4382868 0.161714
4.1162224 -0.60303205 1.1623105
4.3898215 0.97175181 1.021319
0.805884 0.41611928 0.80897546
-5.0576949 0.92111957 0.58228302
-5.3018665 1.6001027 1.2984642
-5.1119208 -0.096488789 0.71110618
-5.6584492 1.3568332 1.3692904
5.7810402 -0.74493045 0.87254804
4.1909099 -0.4042896 0.93803906
0.37583399 2.6904321 0.66951191
-5.309051 1.8734086 0.51564109
-0.64468962 0.63792926 0.13389063
-4.1181936 1.9403242 0.85914099
-4.5370212 -0.31956235 0.1495313
0.50769532 0.08228375 1.1994783
5.3065066 0.042369392 0.90895128
-4.3096151 1.9859219 0.27354896
4.5995889 1.8763622 0.37608036
-0.78354979 2.2920294 0.40812808
-5.2990732 -0.81092066 0.98128366
5.0793366 1.2554826 0.81866699
4.5983057 2.0293431 0.89038074
-0.78500611 0.8736493 1.0494779
-5.2982631 1.0719517 0.86792803
-0.4602693 1.0832882 0.40440571
-4.1676874 -0.87801492 0.46809044
0.37583399 2.5660791 1.0438713
-5.4316278 1.0640104 0.37630537
-5.4294152 -0.69583505 1.3057961
-0.33771577 0.65608108 0.17342846
-0.52255523 3.1081183 0.84738398
5.7067742 1.4708556 0.70749795
4.1174684 1.5490415 0.3720172
-0.052274533 1.4578204 0.73398232
-0.78477544 0.45316055 1.2210658
-4.1162138 1.7875272 1.1863533
-4.1199741 -0.090955809 0.31097901
0.87610483 1.0197313 0.53049088
4.1883664 1.5949333 0.47548911
-4.3605371 1.2444001 0.20784599
-0.081530727 1.4402578 1.0844145
-4.4353628 1.1162202 1.2285085
4.3200464 -0.95737505 0.56056714
-4.3583875 -0.62897217 0.18552937
4.5996871 1.8499882 1.1842885
-4.190877 1.6834762 0.52696168
-5.5679698 1.7348812 1.3942025
4.3631854 1.7386962 0.14218211
-5.5555978 -0.63359249 0.18868867
-5.1119208 1.060624 0.60761452
5.7731743 -0.3865754 0.74596995
0.64342546 1.1920303 0.85275429
5.6591678 0.93926632 0.85929227
-5.6797581 0.93897063 0.71586692
0.39902443 2.9294555 0.8032999
-5.2992067 -0.46431902 1.2306235
5.7811003 0.091041453 1.0044916
-4.1157413 1.1485403 0.88127208
4.4348631 -0.73866355 0.25858262
5.5190082 -0.32231611 0.11935969
-4.3063869 0.98661208 1.0464636
-4.8838482 0.57702702 0.76797253
-4.5980272 -0.36929256 1.2388687
-4.5962353 -0.8335166 0.56416857
4.1523142 1.2273434 0.27325627
0.61576778 0.0076851044 0.40808547
-4.1274643 -0.1996551 0.22342449
-4.5865884 1.9362209 0.64173657
0.211098 1.2354577 0.61939698
4.8256836 0.48022121 1.0073601
-4.6853075 -0.17000216 0.77781081
0.805884 0.25835687 0.79830921
4.1908727 -0.96537817 0.7172429
-4.5758805 1.629616 0.18618326
0.80588394 2.3633695 0.88199657
0.87713605 2.1486907 0.35359347
-0.44258505 -0.085089609 0.66451275
-0.78126198 0.85563254 0.69175565
-0.0015067346 0.35629821 0.88361901
4.1164641 -0.38687187 1.2534726
-0.30108136 2.4813619 1.2721219
0.84618014 1.9679596 0.43141431
4.1161942 0.029364683 1.0487372
4.4854083 1.2037936 1.2896487
-5.6302338 -0.41429317 0.13009064
4.1157498 -0.26225737 1.196872
-4.8215542 1.6694826 0.63014734
5.2988162 1.8682445 1.1509137
-4.5960665 0.0060624396 0.92423368
-4.8215542 1.25508 0.6876986
5.3030119 1.2668962 1.0809255
5.7754703 1.925801 1.1685563
-5.779705 1.5478134 1.1545405
-4.3617139 1.4986882 1.4122808
4.1260033 1.2641838 1.2343639
4.7925615 0.64018178 0.58228302
4.6209941 -0.52216953 0.9968735
-0.31499776 0.86626977 0.29479301
4.5978279 1.9577963 0.50543499
0.40111676 0.039552364 0.62028694
4.9059 1.1730379 0.88361901
5.7814035 1.486128 1.2358046
0.771837 2.9712882 0.38504243
0.53655702 2.9297109 1.2128562
4.969306 1.4063168 0.88361895
-4.9626474 0.27730405 1.2519455
-5.4713378 0.29509309 0.69083315
-0.74586737 0.87318766 1.2803988
-4.2342558 1.5901783 0.13083766
-4.588048 -0.90947747 0.77863252
5.2441359 -0.33150032 0.7372421
5.3697305 -0.54250026 1.3600786
-0.30318892 2.6760724 1.1815
4.1166272 1.4524865 0.28265709
-0.77341008 1.9367787 0.568416
5.7812457 1.2752035 1.1536145
-5.4603124 0.14074317 0.34531578
4.905601 -0.25352567 1.0018193
-5.4967194 -0.40506387 0.12473904
5.7067742 -0.21332458 0.85385603
0.86127162 0.35219792 0.22673987
-0.7807802 0.67723083 1.2765595
5.6972799 1.9638145 1.2564793
4.119628 1.7653334 0.51505256
4.1866059 1.2851851 0.70534867
5.2767229 -0.053978302 0.62188077
5.7445879 1.1599013 0.326994
-4.4976792 -0.2851615 0.69089526
5.5917621 -0.016742153 1.3252432
5.2767224 -0.32411566 0.42337257
0.37583399 2.3910022 0.93351436
0.211098 2.151998 0.72061092
0.076258615 1.2854207 1.2297606
-0.30294257 1.0348053 0.9456104
-5.3021698 1.567879 0.3270821
0.88048816 2.9400799 0.73296511
0.87767094 2.3184004 1.2653759
-0.78126198 0.70641971 1.0256019
-5.4680996 0.10219099 1.2348661
4.2543855 1.1509165 0.28493133
-4.6209278 1.734956 0.96613944
-4.5566978 0.15951514 0.42712367
-4.4004784 -0.94223028 0.51464331
-4.7542152 0.085824862 0.62898517
4.5703921 1.3184067 1.3085215
-0.77687317 2.5437822 0.22886978
-5.6063504 -0.280146 0.12614441
-5.6345663 -0.83638632 1.1799958
4.1513209 0.11654463 1.1499951
-5.2766571 -0.041641988 0.77062482
-4.116333 1.1554406 1.0098429
-5.5386071 1.3048997 1.361021
-0.302573 0.62311423 1.2381825
0.87822306 0.27318412 0.33186513
-4.5536022 1.6119295 0.69652063
5.3036079 0.071606368 0.42122591
4.1159139 -0.71177667 0.99016851
-0.70997906 0.33862504 0.93860686
0.37583399 2.6720009 0.92208964
4.119628 -0.41290918 1.1116021
0.044796754 1.5333186 1.4657452
-4.5866437 1.3866483 0.23307756
0.211098 2.3379419 0.79634088
4.9613504 -0.18193297 0.80660856
4.5939703 -0.11427252 0.27581042
0.4347007 1.1184833 0.97058654
-4.1429067 2.004354 0.37268111
-0.46615914 1.8196397 0.78712761
4.2741599 -0.98198009 0.859568
5.4891911 1.5159142 0.12471928
-0.73368782 0.058375321 1.1335118
4.5958786 -0.73926175 0.56881654
4.5196981 2.1970854 0.80974174
-4.2683563 0.30037749 0.76838332
0.37583402 2.6166036 0.77005994
5.2980261 2.0674958 0.80716062
-5.5509329 0.24169976 1.0443059
-0.27989599 2.3957155 0.70622671
0.65660387 2.7747781 0.20014837
-4.2696738 -0.27562273 0.12967573
-4.5803733 1.8607404 0.26936615
-4.8148975 0.42712146 1.1472245
5.4289312 0.29362261 0.80963361
-4.1158409 1.7302125 0.35298958
5.6676354 0.084573515 1.2380203
4.6209941 1.6125202 0.47639799
5.7707357 2.1136324 0.62824392
4.4096618 -0.98126823 0.89342785
-4.6209278 1.6211159 0.43019873
-5.7810879 1.1555991 0.74561393
0.030918764 1.1523989 0.88361901
5.0941715 0.74778938 0.81866699
-4.1195612 -0.00027257763 0.72597641
0.805884 0.53122336 0.92370838
-4.4515781 1.0503503 0.38897306
5.4067545 2.2029948 0.81669843
-0.65346199 1.8268673 0.80563331
-4.1784382 1.2752807 0.7813133
5.105588 0.92144239 0.81200922
-5.3270702 2.0816724 0.46311092
-4.1575241 -0.14075536 0.9830116
5.0190978 0.026012219 0.7422812
4.4089012 1.8797998 0.20146875
5.0190978 1.5606831 0.67122239
5.3003459 -0.8601799 0.83947241
-5.5835485 2.1783988 0.54660666
0.64226902 2.5339403 1.4122624
0.56297117 2.7016892 0.16717626
5.6465182 2.186306 0.59719878
-5.7416067 1.2865127 1.3034528
-4.1408072 1.9645164 1.1994109
5.7810502 1.7854251 0.41456753
-4.1174512 -0.092178479 0.46363464
0.50279057 0.87237298 1.3141847
4.1801825 -0.90131503 0.49925861
0.63826752 2.161916 0.19556424
-0.77719611 0.1716446 0.37616295
-4.190877 1.5096687 0.59480017
4.142704 -0.92720097 0.83472341
0.87720001 0.69975477 1.0889368
-0.4481284 -0.080644093 0.90391237
4.5980134 -0.6678071 0.42582765
4.4835157 -0.95000309 0.57201368
0.37583399 0.7073462 0.55933654
-4.1267428 1.5547441 1.3291093
-4.4969592 -0.087732255 0.18791388
4.5980692 1.3210226 1.1684896
-4.842299 0.77656281 0.78623271
4.9801221 0.51804179 0.88361895
5.7815914 1.1476295 0.95287371
4.4985819 0.11845748 0.33554983
5.6539516 2.1249816 1.0836663
-5.1023822 0.014392138 0.81518179
4.1454744 1.4334331 0.50859839
-5.3459187 -0.17751017 1.3542614
5.7067742 1.7922894 0.72478819
-5.2766571 -0.13381763 1.010047
-0.38326022 0.3219035 1.355744
5.7197747 -0.15631539 0.99340999
-4.1298361 1.3817562 1.3036928
-4.1927586 0.96613967 0.61238718
-0.78414845 1.004236 0.98967898
-4.4918141 0.10783078 0.32014745
0.87686253 2.0249989 1.0539541
-4.2946949 0.034557562 0.24462873
-4.7542148 0.51293051 0.60048997
-5.4906926 -0.39855871 1.4119873
4.1909099 -0.24885736 0.62704176
4.1492023 -0.6183641 0.65211987
-4.6907911 1.7195618 0.70628506
-0.4254306 2.1125579 1.3032368
-4.6209278 -0.50726378 0.77116621
5.1773419 1.728574 0.80693269
-0.27989599 0.7633602 0.88269556
-5.0126362 1.6720064 0.88282263
4.8446879 0.58532518 1.0952244
5.3852868 0.25170773 0.97010338
-0.30894709 1.907429 0.78093189
-0.78096777 0.048503026 0.91613543
-0.10419718 1.7020173 0.81866699
-4.6209278 1.1996765 0.74041814
5.7818351 -0.032474861 1.0836356
5.7782116 1.3619019 0.48046052
-0.6616416 1.8336933 0.6764003
0.17984496 1.4148976 0.58228302
5.3289056 1.5779269 0.16796291
-0.27989599 0.31487834 0.95315206
-5.241498 1.7267883 0.81124842
-4.4357138 -0.44553143 0.13131458
4.1185675 1.3553591 1.0754848
-4.5978732 -0.04446774 1.1891909
-4.4661951 2.168529 1.001196
0.211098 0.57324231 0.69104815
-0.50871575 3.0821657 0.57468581
4.4898195 1.6072984 0.13419312
-0.14660899 2.1098754 0.73572838
0.38736999 2.4242601 1.1460128
-4.1161051 1.2260251 0.45775473
-4.6209278 -0.56556034 0.62308472
0.39723819 1.9769868 0.87324613
-0.76861167 0.0059473654 0.59474748
-0.70997894 0.74117327 0.75301552
-5.5673976 -0.79844975 0.303711
4.5137715 -0.13437164 0.17464224
-4.1195612 1.4078138 0.46075034
-0.30514359 2.8472807 0.39752752
-4.3028545 0.96309966 0.54527187
4.2872338 1.8459264 0.18390979
-4.2935395 1.363135 0.15659888
5.7053213 0.95034462 0.70445955
4.7845745 -0.28208828 0.58228308
5.7816381 1.9455384 0.96887434
-4.3346572 -0.41782629 1.4111528
-5.7817302 1.9306512 1.0340103
4.9907293 0.40692601 0.74820566
4.3782663 -0.3632344 1.4176056
-5.2988305 -0.40081048 0.2876665
-0.73512399 2.4005795 0.48336041
-4.7355475 0.46694994 1.2495061
5.7067738 1.2768848 0.7613464
5.4375219 -0.42121226 0.13127805
-4.1162806 1.9482483 0.47842994
-0.55545998 0.84742194 1.3431175
5.2767229 1.8197453 1.0135995
5.2767234 1.9092205 0.62845325
-4.8628244 0.84791327 0.64726901
5.3724518 -0.22331816 0.69142812
-5.7804132 1.9338148 0.59732568
-5.2766571 1.3815274 0.74574751
5.2767229 -0.13814609 0.47587368
5.3508897 -0.56524277 0.1951835
-4.9058075 0.57791317 0.98220778
-0.048452638 2.6924791 0.709566
4.5965452 1.7182949 1.1896574
5.0190978 0.16110021 0.71791077
4.7542806 -0.50115335 0.80343449
-5.7818089 -0.16330332 0.36475497
-0.27989599 2.3764665 0.57189333
-0.14660899 2.6269326 0.60059458
-0.47798312 0.57030976 1.4140961
-4.196455 1.2761428 1.319906
4.8087473 1.0647731 0.58243436
5.7817831 -0.13080361 1.1591948
4.912818 0.57131207 0.7817843
-4.1182089 -0.28347573 1.1441562
-4.6209278 1.7519761 0.59827566
-5.3793783 -0.90169102 0.47762734
-0.78126192 0.49197018 1.0575583
-0.78126198 0.6583299 0.45877472
-4.190877 1.4426112 0.73325312
-0.6581496 3.0826182 0.92826998
5.2767229 1.2736874 0.86436677
4.4355149 -0.22880256 0.13281634
5.4774685 0.2751638 0.59053445
0.6295321 1.8194904 0.70748746
4.231616 0.28694451 0.84007001
-5.5322037 2.2215848 0.76791483
4.1247644 1.2839094 0.82473546
-5.4860859 -0.98598754 0.84458804
5.7810817 -0.21757193 0.28733104
5.0190978 -0.39150578 0.66822654
-4.5875163 -0.096408978 0.46574748
0.27661651 2.4812574 0.71876335
-5.7791638 1.8143878 0.4827283
0.48455012 0.45140502 1.3910681
4.5175419 -0.89606982 0.46678308
4.5831647 0.15481512 1.046641
-0.35346055 0.99157917 0.34211704
0.51857924 0.78785598 0.17452961
-4.2432761 1.731788 1.3857672
4.5465612 2.0845146 1.1054672
0.16775191 1.4662069 1.3479824
-5.7513127 -0.76561594 0.34856063
-4.8100634 1.4247067 0.58381659
-4.999824 0.37419963 0.88361901
0.37583399 0.52080268 0.70192176
4.1909099 -0.41171265 0.49436161
0.7733565 2.0781767 1.2716465
0.54266393 2.8333776 0.23972908
0.80856889 2.3267114 0.16090855
-4.1309652 -0.34003282 0.84747756
-0.27989596 0.70910692 0.61368388
5.6540709 -0.7973696 0.31438679
4.1249385 2.1050467 0.63744462
0.11820799 1.5853354 0.66357946
4.1185436 1.2559445 0.97422999
0.71431768 1.8204229 0.80138171
-5.2766571 1.5411147 0.6239813
-5.7780242 -0.061956607 0.60993123
-4.4370008 1.602075 0.83439553
5.4735518 0.22790733 0.47232568
5.781239 -0.83176267 0.77944463
0.024052994 1.1191295 0.64726901
-0.56971449 0.74824345 0.15256065
-0.78126198 2.1708312 0.58919013
-5.2766571 -0.17685026 0.61566705
5.0107312 1.0393448 0.88361895
-5.4589338 1.2898314 0.18842208
5.4869423 -0.093551338 0.17046389
0.065172218 1.4561632 0.64726901
-5.068975 0.52947885 0.83950579
4.1161885 -0.036186479 0.47815117
5.6666665 1.0645972 1.1540313
-4.8920512 -0.35549253 0.64726901
0.41021597 0.9379164 0.75558197
-5.3006282 -0.32818735 1.2912518
0.60793257 1.8596076 1.0029254
-4.870338 0.64437932 0.88361901
4.1195345 1.2964897 0.54376948
-4.116847 1.9547896 0.62920594
5.7092342 1.009829 0.49856257
4.6209941 1.4067553 1.0751991
-5.7569017 1.08812 0.43662307
-4.5231447 -0.72119427 0.26658553
-0.045848724 1.184167 1.2939417
4.1774902 1.681615 0.76368695
0.40206116 2.2388411 0.27952152
0.37583399 0.46164745 0.84064734
5.7810926 -0.69782948 0.54999578
5.7575059 0.2130024 0.93536395
0.88005358 0.92462271 0.93777227
5.7590027 -0.29907516 0.1898222
-0.35241297 0.75217402 1.3456668
5.3113747 -0.29835269 0.20397735
-5.7816401 -0.32266739 0.31441116
-4.1195612 1.7946621 0.55493605
-5.3269243 2.1667681 0.77896446
5.169529 1.5976322 0.83255494
-4.1687336 -0.82640731 1.1464992
4.2129717 0.96625602 0.58035266
4.3552051 2.1812479 0.55077648
4.9916964 0.67416102 0.88361907
-0.27989602 2.7652168 0.88502264
5.0736804 1.126798 0.58228302
0.37583399 0.31956893 0.55930042
-0.78263807 0.11090497 0.49988446
-4.1160889 -0.4354465 1.2234457
-0.6959219 1.944227 0.41094601
-4.1169872 0.041870192 0.44054723
-4.5995808 1.3300103 1.2116655
5.1119542 0.97362047 0.60261667
4.1183395 -0.72012281 0.71633697
-5.2766571 -0.24030632 1.0727423
0.82192779 0.46398178 0.15866718
5.7819576 1.6777637 0.34845948
0.2060003 2.0274792 0.81074071
0.711725 2.783524 1.3291512
4.1604424 1.1162174 0.36265039
-4.9725871 -0.23899439 0.64726901
5.7789068 -0.55239642 1.2428221
-0.7843802 2.7403574 1.1763477
5.3442879 0.24571346 0.61950076
0.03793161 1.1272377 1.3640242
-0.30577543 0.18995455 0.89974743
0.48031902 2.1514742 1.3134094
-4.5994525 -0.15996845 1.2300967
4.3679357 1.6001493 0.11985615
-4.586544 -0.68240643 0.95288163
0.16102192 2.2217703 0.58228302
-0.78237361 1.0601907 0.8370952
0.23606627 0.5690155 0.81240034
4.152585 1.0867982 1.1258917
4.8963532 -0.065383174 0.88361895
4.6209941 1.7472049 0.93686259
5.2767229 1.3495079 0.63516569
4.6209941 0.021357231 0.79771042
5.558939 1.0133998 1.0989847
-4.5496883 2.1776197 0.83150893
-0.14660899 1.0705508 0.79776263
-5.019032 -0.48467976 0.71776342
-0.78515393 2.0569353 0.917467
4.9772062 0.60403579 1.1108088
-4.9130812 1.2065551 0.88361907
-4.7542148 0.65748328 0.63250345
0.37583399 2.1988151 0.92720079
5.7805686 1.2368727 0.53874087
4.6209941 -0.11593217 0.80952239
5.3095703 -0.71667027 0.91463262
-4.5988193 0.10446732 1.0085304
-0.78126198 2.2327318 1.0280714
0.1808612 2.4991481 0.58228302
4.4876738 -0.79358709 1.2216566
0.40937796 0.66055965 1.1426579
-5.1572905 1.647295 0.68186867
-0.32855093 2.590785 0.18826608
-4.1162782 -0.31353039 0.29319599
