# .PCD v0.7 - Point Cloud Data file format
VERSION 0.7
FIELDS x y z
SIZE 4 4 4
TYPE F F F
COUNT 1 1 1
WIDTH 847
HEIGHT 1
VIEWPOINT 0 0 0 1 0 0 0
POINTS 847
DATA ascii
-7.3899993896484375 2.6384201049804688 3.5290675163269043
-18.260597229003906 -1.2595977783203125 1.8254058361053467
-6.417304992675781 -1.13446044921875 4.650259017944336
-16.38650131225586 4.090065002441406 5.446496486663818
-17.18457794189453 6.9124755859375 4.377336025238037
-9.889156341552734 -4.275421142578125 1.7571172714233398
-17.865150451660156 0.47743988037109375 4.388134956359863
-16.591453552246094 5.457374572753906 4.776365280151367
-3.7857666015625 -7.029510498046875 3.1095192432403564
-17.35504913330078 3.6525115966796875 5.56433629989624
-17.680068969726562 1.6930084228515625 5.121206283569336
-4.448748588562012 -4.4102325439453125 3.201580286026001
-7.91381311416626 -7.3573150634765625 2.543215751647949
-18.90752410888672 2.3616943359375 5.314638137817383
-3.5543479919433594 -3.8295974731445312 2.9803104400634766
-18.697240829467773 -1.70916748046875 4.043673992156982
-4.644258499145508 3.1593093872070312 3.6823198795318604
-18.044219970703125 -1.4509429931640625 1.9015965461730957
-22.931358337402344 5.508434295654297 5.5174689292907715
-3.8823113441467285 2.85467529296875 3.059130907058716
-25.734073638916016 8.49148941040039 5.846950531005859
-4.599241733551025 -0.38845062255859375 3.243103504180908
-18.543067932128906 3.5554733276367188 3.7513644695281982
-24.438369750976562 6.706729888916016 5.756538391113281
-7.789798736572266 -7.4766998291015625 2.4012956619262695
-17.522062301635742 -1.796966552734375 3.5545907020568848
-4.587574005126953 -1.799957275390625 3.1711232662200928
-18.146560668945312 -2.1613311767578125 2.0560641288757324
-9.6905517578125 3.1977920532226562 4.322721004486084
-26.85306167602539 8.173942565917969 6.316688537597656
-9.38211441040039 -1.9110107421875 4.883281707763672
-20.007890701293945 -1.3803558349609375 3.7413554191589355
-16.857458114624023 6.071052551269531 5.038830757141113
-17.465129852294922 -2.6567153930664062 2.575714111328125
-17.58831787109375 2.7758407592773438 5.017179012298584
-8.427858352661133 -2.1430892944335938 4.823431968688965
-17.270797729492188 -0.0727386474609375 2.9909486770629883
-20.91149139404297 4.674015045166016 5.827953338623047
-4.620927810668945 1.199676513671875 0.7404181361198425
-19.1632080078125 3.9619674682617188 5.165229797363281
-9.590595245361328 1.8264007568359375 4.19512939453125
-5.231225490570068 1.199951171875 4.291057586669922
-18.57669448852539 1.6733322143554688 5.216423034667969
-22.559654235839844 8.703521728515625 5.780453681945801
-8.200498580932617 -0.6658096313476562 4.795379638671875
-9.463043212890625 -3.6319198608398438 4.047179222106934
-3.6090164184570312 -5.4367523193359375 4.386703014373779
-24.421607971191406 7.296760559082031 5.709201812744141
-9.301658630371094 -1.5160369873046875 4.895756721496582
-19.764339447021484 -1.3573226928710938 4.087597846984863
-21.930374145507812 4.765758514404297 5.791031837463379
-7.924507141113281 -5.5203704833984375 2.9112794399261475
-18.454139709472656 -1.3573226928710938 4.032309532165527
-18.484268188476562 4.942344665527344 5.639925003051758
-19.979082107543945 4.319282531738281 5.260290145874023
-4.891765594482422 2.0682296752929688 4.071046352386475
-6.927453994750977 -1.3046493530273438 3.6356797218322754
-9.559123992919922 -7.6368865966796875 2.684694766998291
-26.97707176208496 9.083793640136719 5.980807781219482
-16.770078659057617 3.1869964599609375 4.890288352966309
-23.832321166992188 9.071182250976562 5.919591426849365
-4.006429195404053 -1.93017578125 3.055725574493408
-5.251038551330566 -3.71527099609375 3.3392789363861084
-6.602211952209473 -5.383819580078125 3.5987606048583984
-10.53103256225586 -7.33868408203125 3.1023271083831787
-18.585922241210938 6.0042266845703125 4.522377014160156
-4.205760478973389 -4.9705047607421875 3.1917948722839355
-9.770733833312988 1.7261962890625 4.818517684936523
-17.482868194580078 6.402366638183594 4.885692119598389
-9.497520446777344 -2.1637344360351562 3.6890029907226562
-5.015803813934326 3.281219482421875 2.896458148956299
-5.828136444091797 2.5654067993164062 4.110367774963379
-6.156094551086426 0.40346527099609375 3.559889316558838
-5.252193927764893 -3.3684539794921875 3.319291591644287
-6.607604026794434 -1.686981201171875 4.681981086730957
-17.416641235351562 0.4818878173828125 2.7439801692962646
-22.97095489501953 8.75924301147461 5.668354034423828
-9.783340454101562 -4.46612548828125 3.2776756286621094
-7.929404258728027 -7.92584228515625 1.5405906438827515
-26.644142150878906 8.824657440185547 6.336790561676025
-5.9177021980285645 -3.56121826171875 3.478700637817383
-21.15169334411621 5.200294494628906 5.878690719604492
-27.30530548095703 10.240829467773438 6.071540832519531
-16.505807876586914 6.318733215332031 4.574352264404297
-18.876296997070312 2.9163894653320312 4.119467735290527
-19.57485580444336 -1.6261520385742188 2.6620476245880127
-8.959102630615234 -3.6588668823242188 3.592794179916382
-9.799491882324219 -8.687530517578125 1.1067310571670532
-23.27234649658203 7.382450103759766 5.581196308135986
-8.967529296875 -4.590370178222656 1.2833917140960693
-19.627593994140625 -1.3827438354492188 4.477565765380859
-9.98775863647461 -7.8055419921875 3.523312568664551
-22.431922912597656 6.846935272216797 5.977390766143799
-19.418190002441406 -1.8007659912109375 4.112178802490234
-26.575740814208984 9.672691345214844 5.972930908203125
-17.86699676513672 -0.693939208984375 2.019129753112793
-9.411933898925781 -2.8871994018554688 3.496377944946289
-9.4263916015625 3.2882156372070312 4.559778213500977
-9.490621566772461 -8.684364318847656 0.996124804019928
-5.504916191101074 3.0300369262695312 3.7485759258270264
-21.459579467773438 6.460334777832031 5.387964248657227
-4.638579368591309 -6.4439544677734375 3.2523281574249268
-18.111167907714844 -1.6015243530273438 2.704753875732422
-23.648021697998047 8.559402465820312 5.962453842163086
-8.359352111816406 -5.863761901855469 1.2323795557022095
-24.125747680664062 9.282356262207031 5.788708686828613
-9.176108360290527 -7.71734619140625 2.508230447769165
-9.596107482910156 -5.29473876953125 3.65354585647583
-23.668109893798828 7.568340301513672 6.079051971435547
-4.329684257507324 -5.587593078613281 4.358736038208008
-8.922901153564453 -4.726814270019531 1.1391692161560059
-9.262523651123047 0.0526885986328125 3.483715772628784
-27.726924896240234 11.009456634521484 6.205815315246582
-5.138020992279053 -3.2969818115234375 4.59006404876709
-4.1705851554870605 -0.6594390869140625 2.930387258529663
-19.11404800415039 4.9691619873046875 5.703037261962891
-8.777915954589844 1.786956787109375 4.688397407531738
-8.609115600585938 -2.3833236694335938 4.009908676147461
-9.588886260986328 -8.824073791503906 3.431487798690796
-8.924762725830078 0.9381561279296875 4.779947280883789
-4.201937675476074 -3.6204605102539062 3.1070027351379395
-17.43065643310547 7.836387634277344 4.920679569244385
-3.8418190479278564 0.24822235107421875 3.1682562828063965
-18.263545989990234 6.956916809082031 4.603569030761719
-20.105926513671875 -2.2607421875 3.663332939147949
-5.241497993469238 1.7267913818359375 0.8112484216690063
-6.984554290771484 -3.0020828247070312 3.6832597255706787
-10.074745178222656 -6.18603515625 3.529223680496216
-17.854164123535156 -1.5978164672851562 2.8487727642059326
-7.887697696685791 -8.246208190917969 2.294084072113037
-9.802528381347656 -1.5346145629882812 4.928516387939453
-5.770411491394043 3.014190673828125 4.034374237060547
-19.166152954101562 6.76409912109375 4.9439287185668945
-9.021400451660156 -2.7849273681640625 2.9025590419769287
-17.323259353637695 -2.0135345458984375 3.2854089736938477
-4.435713768005371 -0.44553375244140625 0.13131457567214966
-29.09518051147461 10.431096076965332 7.056604385375977
-19.50259780883789 -2.349884033203125 4.491487503051758
-9.023754119873047 -8.7764892578125 1.1743608713150024
-16.301694869995117 4.900493621826172 5.368927001953125
-4.946241855621338 2.7314834594726562 3.38555908203125
-10.689029693603516 -6.736457824707031 2.1917688846588135
-4.727570533752441 2.7595291137695312 3.9107675552368164
-8.589566230773926 -7.353507995605469 3.6417627334594727
-7.0532755851745605 -0.39459991455078125 4.671032905578613
-22.709775924682617 6.276630401611328 6.014044284820557
-26.935598373413086 9.470252990722656 5.984198093414307
-18.87398910522461 -1.765167236328125 2.003480911254883
-16.897647857666016 6.7559814453125 5.151699066162109
-24.72348403930664 8.616653442382812 6.124515056610107
-28.329418182373047 9.46729850769043 6.478952407836914
-4.597873210906982 -0.044464111328125 1.1891908645629883
-10.595592498779297 -5.952484130859375 2.0906662940979004
-17.48980712890625 -2.866607666015625 2.7455973625183105
-7.020420551300049 -3.3059234619140625 4.686260223388672
-9.442401885986328 -4.463874816894531 4.014077186584473
-19.64337158203125 -1.8226776123046875 2.9901070594787598
-23.071468353271484 6.0672760009765625 5.595034122467041
-27.992435455322266 8.81909465789795 6.135951519012451
-7.221621513366699 -1.6224594116210938 3.697147846221924
-6.906175136566162 0.29822540283203125 3.682281255722046
-4.870174407958984 -3.101837158203125 4.563601493835449
-5.136517524719238 -3.9600982666015625 3.328030824661255
-10.324039459228516 -6.321769714355469 1.4487659931182861
-18.839210510253906 -0.5802154541015625 4.959040641784668
-8.92944049835205 -7.609413146972656 0.9890258312225342
-9.745260238647461 -7.828643798828125 2.358975887298584
-9.31627082824707 2.9313507080078125 4.273789882659912
-20.026668548583984 -0.560882568359375 2.6436240673065186
-5.4245758056640625 0.363128662109375 3.4360406398773193
-9.648393630981445 1.9023666381835938 4.786959171295166
-9.721381187438965 -7.6558380126953125 3.376075029373169
-9.475534439086914 -7.756797790527344 1.2595982551574707
-16.362648010253906 1.7086868286132812 5.4105048179626465
-21.212047576904297 6.453269958496094 5.86080265045166
-7.790985107421875 -5.715599060058594 2.34663462638855
-26.776382446289062 8.952499389648438 5.959598064422607
-5.773036003112793 -3.087677001953125 3.4191484451293945
-4.466195106506348 2.1685256958007812 1.001196026802063
-19.96570587158203 -0.9367828369140625 2.4677000045776367
-27.69347381591797 10.546409606933594 6.124797821044922
-16.740436553955078 5.452068328857422 5.375064849853516
-19.89505386352539 -2.45928955078125 4.071904182434082
-8.186416625976562 -4.595863342285156 1.8981034755706787
-10.032371520996094 -2.1726455688476562 4.258233070373535
-10.154022216796875 -8.662391662597656 1.6773896217346191
-5.564568519592285 -1.142303466796875 4.566882133483887
-18.323911666870117 -1.61260986328125 4.158239841461182
-8.943649291992188 -2.2790603637695312 3.331019878387451
-18.44911003112793 -1.3573226928710938 2.323309898376465
-16.988025665283203 1.2144355773925781 5.008431911468506
-6.315993309020996 -5.210899353027344 3.5485568046569824
-4.966164588928223 0.796234130859375 4.308520317077637
-18.550498962402344 0.15583038330078125 1.8784915208816528
-6.34432315826416 3.2198944091796875 3.0925347805023193
-7.8704071044921875 -5.717811584472656 2.836181402206421
-17.697818756103516 -1.0723876953125 4.4405670166015625
-17.687423706054688 0.7731552124023438 2.3991827964782715
-18.614368438720703 6.1151123046875 4.437048435211182
-18.350862503051758 7.1143646240234375 5.368704795837402
-18.86143684387207 -1.3573226928710938 2.6919069290161133
-9.075328826904297 2.8010787963867188 4.578510284423828
-6.650917053222656 -5.2966156005859375 4.097326755523682
-8.768905639648438 -3.572906494140625 1.6840715408325195
-9.980842590332031 -3.6579666137695312 2.122837781906128
-6.70279598236084 -2.5223922729492188 3.596057891845703
-29.14529037475586 10.54713249206543 6.792444229125977
-17.695064544677734 7.3353118896484375 4.862043380737305
-20.002857208251953 4.5294952392578125 5.250401496887207
-7.509929180145264 2.3023300170898438 3.417965888977051
-4.116105079650879 1.2260284423828125 0.4577547311782837
-9.17721939086914 -2.5820693969726562 2.0208206176757812
-20.10885238647461 -2.5303192138671875 3.444071054458618
-18.421199798583984 1.6451797485351562 4.536128520965576
-26.782026290893555 7.793025970458984 5.900341510772705
-4.445391654968262 3.2436904907226562 2.7799150943756104
-5.660998821258545 2.6866073608398438 3.148393392562866
-17.584196090698242 -1.5325469970703125 4.3460001945495605
-24.073484420776367 9.146171569824219 5.945267677307129
-18.505903244018555 6.705474853515625 5.444382667541504
-18.901683807373047 3.8056488037109375 4.096524238586426
-4.660308837890625 3.0731124877929688 3.835303783416748
-4.4147233963012695 3.0064773559570312 3.6094133853912354
-9.088226318359375 0.42768096923828125 3.942483425140381
-7.66651725769043 -7.381927490234375 2.3825340270996094
-26.508256912231445 8.77456283569336 6.324986457824707
-25.084287643432617 6.511264801025391 5.751481056213379
-9.471548080444336 2.049530029296875 4.75105619430542
-17.77860450744629 -1.3573226928710938 3.5375232696533203
-26.981800079345703 7.804172515869141 6.098308563232422
-4.620927810668945 -0.5655593872070312 0.6230847239494324
-18.574684143066406 1.8479156494140625 5.28616189956665
-18.565258026123047 5.3747711181640625 4.237464904785156
-17.476078033447266 5.076099395751953 4.99686861038208
-18.680957794189453 -2.8345565795898438 2.040708065032959
-4.2210798263549805 3.0607986450195312 2.746258497238159
-18.550827026367188 3.87548828125 5.66756534576416
-21.83461570739746 5.512363433837891 5.932623386383057
-18.899574279785156 4.10968017578125 4.228213310241699
-5.130223274230957 -6.496833801269531 3.560650110244751
-22.483539581298828 5.1332855224609375 5.846800804138184
-27.817392349243164 9.966331481933594 6.407791614532471
-24.761972427368164 7.167163848876953 5.76534366607666
-5.567397594451904 -0.7984466552734375 0.3037109971046448
-8.36283016204834 -6.956809997558594 3.653424024581909
-18.265579223632812 1.6195068359375 4.137924671173096
-5.38891077041626 2.6053848266601562 4.03631067276001
-6.752532958984375 2.5800018310546875 3.4154653549194336
-9.651573181152344 0.8226318359375 4.869695663452148
-8.865352630615234 -7.519172668457031 0.8870065808296204
-19.974775314331055 -2.225067138671875 3.0187864303588867
-7.171863555908203 3.8056411743164062 3.004228115081787
-7.908317565917969 -6.379936218261719 3.0877251625061035
-18.64529037475586 -2.7624282836914062 4.644276142120361
-3.7474746704101562 -5.978599548339844 3.190572738647461
-6.2863287925720215 -0.56695556640625 3.5291121006011963
-8.0172758102417 -0.65252685546875 4.778855800628662
-21.996227264404297 4.486141204833984 5.528890609741211
-4.99821138381958 -4.981697082519531 4.458998203277588
-5.788424015045166 -3.7955703735351562 3.4637858867645264
-26.46657943725586 9.88454818725586 6.218916416168213
-18.933368682861328 7.244392395019531 4.862071990966797
-9.954460144042969 -1.5377655029296875 4.934255599975586
-8.31667709350586 -5.9105377197265625 3.494556427001953
-9.218040466308594 -1.6986618041992188 2.2387194633483887
-10.591843605041504 -7.490379333496094 2.2752041816711426
-4.119561195373535 1.4078140258789062 0.4607503414154053
-17.31769561767578 -1.0661239624023438 3.9511256217956543
-18.553680419921875 5.57513427734375 5.597007751464844
-18.91868019104004 -1.8357467651367188 3.2794618606567383
-19.8551025390625 -2.6052474975585938 3.187906503677368
-4.275883674621582 2.4517822265625 3.9007163047790527
-17.646263122558594 5.690521240234375 5.452078819274902
-18.177494049072266 2.96295166015625 5.092374801635742
-7.825145721435547 -5.502593994140625 2.4453468322753906
-18.740825653076172 -1.5946807861328125 2.342546224594116
-9.628747940063477 -7.4077606201171875 3.7069802284240723
-19.293373107910156 6.4639434814453125 5.586585998535156
-4.2136406898498535 -0.5260696411132812 2.8296146392822266
-4.804795265197754 -6.183952331542969 4.133356094360352
-4.729252338409424 -4.9393310546875 4.464166641235352
-4.391386032104492 -6.152641296386719 4.199259281158447
-17.16765785217285 5.436435699462891 4.999667167663574
-18.49225616455078 3.4676666259765625 2.9963438510894775
-8.764171600341797 -7.71038818359375 1.3071801662445068
-19.672653198242188 -1.3279266357421875 2.1307876110076904
-10.330146789550781 -5.15142822265625 1.7010831832885742
-19.273651123046875 0.0310211181640625 1.9841015338897705
-9.501846313476562 -7.637794494628906 1.9171963930130005
-18.53411865234375 -2.7753219604492188 1.9254411458969116
-20.990079879760742 8.178455352783203 5.494162559509277
-3.663311004638672 -2.0831680297851562 4.430947303771973
-17.304616928100586 -2.6648330688476562 2.9956235885620117
-18.64973258972168 -2.5199508666992188 4.709946155548096
-7.190823554992676 3.74810791015625 2.846410036087036
-17.895835876464844 0.32793426513671875 4.441679000854492
-4.4084792137146 -3.290924072265625 3.1472442150115967
-6.4290337562561035 1.477294921875 3.691905975341797
-18.395530700683594 -2.5273361206054688 4.682680130004883
-18.175010681152344 -0.5092620849609375 1.8905760049819946
-6.979365348815918 -1.8910751342773438 3.6498525142669678
-19.637062072753906 0.837493896484375 4.201817035675049
-10.077165603637695 -7.357322692871094 2.4332993030548096
-6.544332504272461 1.6947250366210938 3.7275965213775635
-17.577716827392578 -2.298919677734375 3.948549509048462
-5.443303108215332 -2.523651123046875 4.6003642082214355
-8.246732711791992 -8.633689880371094 1.6626118421554565
-4.302854537963867 0.9630966186523438 0.5452718734741211
-4.935880661010742 -1.7160110473632812 4.534411907196045
-18.235069274902344 7.288002014160156 5.286682605743408
-20.883798599243164 4.064018249511719 5.288743019104004
-6.068918228149414 1.1618194580078125 3.6089487075805664
-4.147681713104248 -4.698081970214844 3.152639627456665
-20.595687866210938 5.731624603271484 5.827493190765381
-9.22113037109375 -5.554046630859375 0.9962966442108154
-18.730358123779297 4.104560852050781 3.46840763092041
-9.472396850585938 -2.9698562622070312 2.1978323459625244
-18.051979064941406 0.93939208984375 4.425708770751953
-24.10210609436035 6.904773712158203 5.687044143676758
-17.280736923217773 -1.6143951416015625 3.2315850257873535
-25.534582138061523 6.972743988037109 6.062290191650391
-5.2383646965026855 -4.226219177246094 3.3709452152252197
-9.311988830566406 -0.9397354125976562 3.20247220993042
-28.435510635375977 9.983925819396973 6.482568740844727
-6.661918640136719 -3.8778533935546875 3.67704439163208
-4.293539524078369 1.3631362915039062 0.15659888088703156
-8.15268325805664 0.9827346801757812 4.689923286437988
-17.5991268157959 -1.863067626953125 4.140041351318359
-8.946456909179688 -4.3906402587890625 4.044767379760742
-4.406045913696289 -3.155029296875 4.52523946762085
-27.749591827392578 10.420543670654297 6.1152119636535645
-9.88222885131836 -3.1874923706054688 2.269415855407715
-18.441043853759766 -1.581512451171875 3.6625685691833496
-10.162529945373535 -7.8675384521484375 2.3579013347625732
-9.352688789367676 3.500640869140625 4.516916751861572
-4.19688081741333 -4.552947998046875 3.153805732727051
-7.861690521240234 -6.625801086425781 3.0546796321868896
-8.541324615478516 -4.2123870849609375 1.7231489419937134
-9.704658508300781 -6.2846527099609375 3.7474899291992188
-6.358159065246582 -0.975128173828125 3.5193607807159424
-16.627412796020508 6.528049468994141 4.472695350646973
-6.849798202514648 1.241180419921875 3.7417151927948
-5.932986259460449 -3.2610397338867188 4.639461040496826
-18.411605834960938 1.7282791137695312 4.723309516906738
-5.028743743896484 -1.0903472900390625 3.279919385910034
-3.9332797527313232 2.105865478515625 3.034964084625244
-5.9745988845825195 -0.39429473876953125 3.4837470054626465
-9.429320335388184 -7.804817199707031 3.5952718257904053
-7.6315507888793945 3.27392578125 4.283847808837891
-17.228065490722656 4.238048553466797 4.933547496795654
-7.235520839691162 3.8153076171875 2.7530994415283203
-6.845402717590332 -2.456634521484375 3.623943328857422
-7.949422836303711 -7.3303375244140625 1.7340102195739746
-6.353033065795898 0.35150909423828125 3.588585138320923
-18.963098526000977 -1.3573226928710938 2.3993000984191895
-18.694589614868164 -1.3573226928710938 2.864724636077881
-21.585250854492188 6.650836944580078 5.408075332641602
-7.295816421508789 -2.032196044921875 4.746923923492432
-6.443060874938965 -4.935966491699219 3.5907158851623535
-17.67599868774414 0.149261474609375 2.2838382720947266
-18.215892791748047 3.0454483032226562 5.59910774230957
-9.647514343261719 0.2872772216796875 4.121572494506836
-18.495819091796875 1.0571441650390625 5.06048583984375
-4.334657192230225 -0.41782379150390625 1.4111528396606445
-9.642292022705078 1.0020904541015625 4.152398109436035
-5.7817301750183105 1.9306488037109375 1.0340102910995483
-17.615917205810547 0.220794677734375 2.368762254714966
-28.76925277709961 11.340211868286133 6.481407642364502
-18.87152862548828 5.696037292480469 4.834140777587891
-8.946914672851562 -3.5232162475585938 3.7629387378692627
-18.56627655029297 4.202110290527344 3.796596050262451
-9.59859848022461 -6.7393035888671875 0.9266229867935181
-10.271437644958496 -8.385391235351562 1.7078351974487305
-9.553306579589844 -2.77044677734375 2.1944632530212402
-10.280415534973145 -7.7820892333984375 2.5326099395751953
-27.747604370117188 10.101943969726562 6.387393951416016
-5.298830509185791 -0.40081024169921875 0.2876664996147156
-18.4217586517334 -1.2230148315429688 4.786348342895508
-17.453561782836914 -2.3785781860351562 3.572537422180176
-22.654266357421875 6.755420684814453 5.518381595611572
-18.16771697998047 -1.6454086303710938 4.421050548553467
-20.187355041503906 -1.53607177734375 3.54191517829895
-21.728126525878906 5.564292907714844 5.432340621948242
-4.465953826904297 -5.2076416015625 3.2762696743011475
-18.92129135131836 -1.584869384765625 3.440986156463623
-24.79489517211914 9.145305633544922 6.057798385620117
-5.208323001861572 1.3521347045898438 4.268959999084473
-5.832808971405029 3.2662582397460938 3.143707036972046
-4.151893138885498 -3.5818023681640625 4.512542247772217
-4.7355475425720215 0.466949462890625 1.2495061159133911
-29.409584045410156 10.491880416870117 7.116378307342529
-18.043182373046875 -1.8083877563476562 3.2637882232666016
-17.758071899414062 5.525688171386719 5.499135971069336
-9.215492248535156 0.7111129760742188 3.690739393234253
-16.439817428588867 0.8568153381347656 4.959645748138428
-9.724098205566406 3.7015304565429688 3.600989818572998
-3.814422130584717 3.1148605346679688 2.785029649734497
-5.869418144226074 -2.8243637084960938 4.642471790313721
-10.360361099243164 -8.353950500488281 1.8441673517227173
-20.522968292236328 6.762256622314453 5.735610485076904
-4.328470230102539 -2.2123565673828125 3.124236822128296
-8.489036560058594 -3.2633209228515625 2.4516003131866455
-9.317211151123047 3.418792724609375 4.322105407714844
-6.207855224609375 1.5631866455078125 4.377569198608398
-9.306934356689453 0.2680511474609375 3.8665997982025146
-17.33844757080078 -0.5319137573242188 3.9191548824310303
-6.283796310424805 0.05136871337890625 4.554557800292969
-16.364952087402344 2.7835617065429688 4.847074508666992
-19.12336540222168 -1.8027572631835938 4.251752853393555
-8.824012756347656 -0.8109283447265625 4.010462760925293
-20.865760803222656 4.914054870605469 5.848991394042969
-8.52956771850586 2.2128143310546875 3.979779005050659
-8.185979843139648 -8.474967956542969 1.3219918012619019
-19.726736068725586 -1.63250732421875 2.5472331047058105
-9.988633155822754 -7.666168212890625 1.3822407722473145
-8.846923828125 -0.7021255493164062 4.852529525756836
-18.860870361328125 3.9156570434570312 3.9141805171966553
-18.188377380371094 3.1843338012695312 5.076631546020508
-9.60174560546875 -4.475059509277344 1.3788092136383057
-18.27692413330078 -2.9609451293945312 4.410918235778809
-19.338577270507812 -1.4580078125 4.518844127655029
-3.8228864669799805 -2.3283767700195312 3.023845672607422
-21.968286514282227 4.959896087646484 5.850310325622559
-20.12596893310547 5.871269226074219 5.250545978546143
-10.362520217895508 -7.3573150634765625 1.90488862991333
-21.543067932128906 5.382236480712891 5.416534423828125
-7.429015636444092 1.9651107788085938 3.7114202976226807
-7.8281569480896 -7.52923583984375 1.7045012712478638
-8.87844467163086 -7.741950988769531 2.3414041996002197
-6.4796624183654785 0.5490341186523438 3.625352382659912
-9.643760681152344 -0.23467254638671875 4.126513481140137
-18.376842498779297 4.5658721923828125 5.641620635986328
-4.116280555725098 1.9482498168945312 0.4784299433231354
-7.474611282348633 -1.258636474609375 3.7450437545776367
-17.735187530517578 -1.0080718994140625 2.1002614498138428
-10.642007827758789 -7.514129638671875 2.8486456871032715
-19.753860473632812 3.3755950927734375 5.591972351074219
-8.79722785949707 3.2114639282226562 3.8536534309387207
-9.051082611083984 -0.8369674682617188 3.3741283416748047
-10.695140838623047 -7.076683044433594 2.6265029907226562
-18.334239959716797 -1.8733978271484375 4.753942012786865
-16.892663955688477 3.840240478515625 4.900053024291992
-5.526080131530762 0.4009857177734375 4.430575847625732
-23.80432891845703 7.924709320068359 6.067791938781738
-17.90268325805664 1.2434158325195312 2.2864155769348145
-9.233829498291016 -2.1986083984375 2.8426074981689453
-9.435501098632812 -1.9110946655273438 3.45231294631958
-6.39446496963501 -0.40287017822265625 4.601808547973633
-7.243413925170898 -2.5148239135742188 4.7411932945251465
-6.43251895904541 1.0026397705078125 3.655519723892212
-26.595409393310547 8.260597229003906 6.325716495513916
-19.539024353027344 3.664886474609375 5.249432563781738
-17.754806518554688 -0.4531097412109375 4.433493614196777
-10.658575057983398 -7.1789703369140625 2.783320665359497
-5.620617389678955 1.4131698608398438 3.5560877323150635
-17.550128936767578 1.3296966552734375 3.4147846698760986
-25.28612518310547 7.4982757568359375 6.217002868652344
-17.863933563232422 1.526519775390625 2.5907795429229736
-8.073626518249512 -2.49102783203125 3.8958487510681152
-10.423613548278809 -8.093063354492188 1.5071827173233032
-8.310209274291992 -7.0946044921875 3.6162939071655273
-18.51422119140625 -2.2182159423828125 1.9673986434936523
-10.479724884033203 -4.984642028808594 2.539985418319702
-19.22156524658203 2.9723968505859375 5.112334728240967
-7.684678077697754 -7.23638916015625 2.5531463623046875
-5.4723711013793945 1.40252685546875 3.530829906463623
-4.862824440002441 0.8479156494140625 0.6472690105438232
-23.085346221923828 8.265380859375 5.6295342445373535
-8.790592193603516 -6.9997711181640625 3.8409464359283447
-5.7804131507873535 1.9338150024414062 0.5973256826400757
-18.61410140991211 -0.42055511474609375 1.8120460510253906
-19.43951416015625 3.1260604858398438 5.136526107788086
-9.724693298339844 -7.3573150634765625 3.3124568462371826
-19.681686401367188 -0.48264312744140625 2.1911511421203613
-20.629070281982422 5.223911285400391 5.302927017211914
-26.184110641479492 9.262409210205078 6.258901596069336
-6.482666015625 -4.3701019287109375 4.538891315460205
-19.801864624023438 -2.9329147338867188 3.846543788909912
-7.748995780944824 0.08989715576171875 4.711152076721191
-5.2766571044921875 1.38153076171875 0.7457475066184998
-18.41558837890625 2.4507980346679688 4.9031500816345215
-9.874515533447266 -8.558723449707031 1.109088659286499
-25.012767791748047 9.130355834960938 6.1002702713012695
-9.996742248535156 -3.5064697265625 2.3517653942108154
-8.332305908203125 2.3174514770507812 4.535584926605225
-18.462913513183594 3.8532485961914062 4.115595817565918
-8.04050064086914 -5.722816467285156 1.5761066675186157
-7.8075103759765625 -1.7462692260742188 4.784505367279053
-19.967548370361328 -1.3573226928710938 3.3196966648101807
-18.63951873779297 3.764068603515625 5.669899940490723
-7.615769863128662 -1.6689987182617188 4.767165660858154
-19.68787384033203 1.0302886962890625 2.466830015182495
-10.573436737060547 -7.832588195800781 2.5779542922973633
-8.481969833374023 -7.311004638671875 3.585569143295288
-24.15850830078125 7.01934814453125 5.688776969909668
-18.444992065429688 0.898468017578125 4.960023880004883
-6.361495018005371 2.1129608154296875 3.548063278198242
-4.9058074951171875 0.577911376953125 0.9822077751159668
-17.429058074951172 -1.8868026733398438 2.4276676177978516
-9.452701568603516 -1.6926422119140625 3.6544697284698486
-19.702720642089844 7.067100524902344 5.3108811378479
-24.23114013671875 6.6170654296875 6.100551605224609
-7.7063398361206055 1.4437332153320312 4.586875915527344
-17.066543579101562 6.219104766845703 4.582042694091797
-17.375228881835938 -0.12052154541015625 3.8973045349121094
-8.039970397949219 -4.610206604003906 1.8975224494934082
-18.648269653320312 3.7013626098632812 3.5709335803985596
-9.769744873046875 -3.8412857055664062 1.740594744682312
-23.28809356689453 8.785919189453125 5.87669563293457
-9.387565612792969 -3.368194580078125 3.153153896331787
-7.356957912445068 0.321075439453125 4.6519904136657715
-3.7126846313476562 -2.63885498046875 3.005743980407715
-18.40465545654297 -2.1583023071289062 1.8071751594543457
-23.46232032775879 5.799053192138672 5.951229572296143
-17.54591941833496 6.861991882324219 3.9081649780273438
-22.532012939453125 6.776031494140625 5.504342079162598
-3.715667724609375 2.9328231811523438 2.9617819786071777
-8.748626708984375 -4.012321472167969 3.1448564529418945
-7.279358386993408 1.8212509155273438 4.488314151763916
-8.211198806762695 -8.366561889648438 3.168663263320923
-19.086681365966797 2.6550750732421875 5.097562313079834
-16.63640785217285 4.041309356689453 5.480731964111328
-19.48554229736328 -1.1826934814453125 1.9919681549072266
-9.864790916442871 -7.710121154785156 2.8400075435638428
-9.190197944641113 -8.24560546875 3.673125982284546
-8.54885482788086 -3.7089996337890625 2.908156156539917
-21.77516746520996 6.06201171875 5.425358772277832
-9.392974853515625 -3.0234375 3.2777481079101562
-5.781808853149414 -0.163299560546875 0.36475497484207153
-4.359538555145264 -2.68231201171875 3.1365251541137695
-16.977294921875 6.6155242919921875 4.393816947937012
-5.141147613525391 -1.4401626586914062 3.279815435409546
-8.816341400146484 -2.7797470092773438 4.783256530761719
-17.860641479492188 1.8621368408203125 4.967580795288086
-19.016319274902344 6.579864501953125 5.535523891448975
-3.8283004760742188 0.5800399780273438 3.1904444694519043
-19.4822940826416 -2.742431640625 4.397902488708496
-24.21070098876953 8.040355682373047 5.690800666809082
-6.385190010070801 -1.2664413452148438 4.651124477386475
-18.544235229492188 6.0038604736328125 5.556513786315918
-8.482963562011719 -4.963752746582031 1.4104595184326172
-3.818678379058838 0.06833648681640625 4.2530341148376465
-9.195367813110352 -8.042213439941406 2.0217456817626953
-5.393528938293457 0.8443756103515625 3.4711766242980957
-3.906104326248169 2.0925750732421875 3.9196925163269043
-17.52777862548828 -2.8245468139648438 3.4260361194610596
-27.919960021972656 10.199100494384766 6.400688171386719
-7.218732833862305 3.9715042114257812 3.756589889526367
-10.576492309570312 -5.710693359375 2.6159210205078125
-8.88006591796875 0.23946380615234375 4.821132659912109
-17.75473976135254 -1.2563247680664062 4.489494323730469
-6.0140814781188965 0.7164077758789062 4.457350254058838
-6.12525749206543 2.26129150390625 3.4262266159057617
-28.58724594116211 10.238256454467773 6.180630683898926
-5.194769382476807 0.239532470703125 2.551060676574707
-19.059406280517578 -1.8090591430664062 1.9304677248001099
-18.099830627441406 2.4349822998046875 5.014629364013672
-20.069732666015625 0.40058135986328125 3.3150620460510254
-7.610583305358887 3.1254730224609375 3.237619400024414
-8.093574523925781 -8.10101318359375 1.5972272157669067
-6.8116455078125 2.74542236328125 3.767129898071289
-4.196455001831055 1.2761459350585938 1.3199059963226318
-9.766998291015625 -1.2212905883789062 4.152241230010986
-7.5875163078308105 3.2378616333007812 3.573702812194824
-10.180808067321777 -7.671150207519531 2.6065499782562256
-19.24378776550293 -2.7510147094726562 2.2280490398406982
-18.64444351196289 -1.1530990600585938 1.7630820274353027
-5.922849178314209 -2.1319808959960938 3.4430837631225586
-18.553319931030273 -1.2609634399414062 1.7710509300231934
-19.84142303466797 0.7976531982421875 2.6357250213623047
-10.406639099121094 -5.0325775146484375 1.8841874599456787
-10.509307861328125 -8.593727111816406 1.81063711643219
-21.074621200561523 7.566516876220703 5.441363334655762
-8.566559791564941 1.8105697631835938 4.6578240394592285
-8.453781127929688 -5.944061279296875 1.1595903635025024
-18.731143951416016 -0.02370452880859375 1.8514512777328491
-17.322540283203125 1.6729736328125 5.260544300079346
-9.166284561157227 -7.329383850097656 0.8528760075569153
-10.714897155761719 -7.817413330078125 2.3900933265686035
-7.822334289550781 -6.794334411621094 3.018192768096924
-8.6444091796875 -7.591552734375 1.0765836238861084
-18.60479736328125 7.320777893066406 4.682557106018066
-22.846797943115234 5.7545166015625 5.5875091552734375
-25.720266342163086 7.608695983886719 6.238358497619629
-19.93902587890625 0.43614959716796875 3.857846260070801
-25.922672271728516 9.50490951538086 6.189326763153076
-8.546524047851562 -2.9486312866210938 2.451361656188965
-18.943145751953125 4.496788024902344 5.122560977935791
-3.6915664672851562 0.5573196411132812 3.1666088104248047
-17.881080627441406 4.6307373046875 5.005912780761719
-4.118208885192871 -0.283477783203125 1.1441562175750732
-6.637296676635742 -1.2146072387695312 3.576321601867676
-8.05216121673584 -4.341270446777344 4.262077331542969
-9.433639526367188 -6.009124755859375 4.03678560256958
-7.453877925872803 3.4201202392578125 3.3927736282348633
-7.496407508850098 3.1971359252929688 3.3111305236816406
-26.29485511779785 7.519931793212891 5.852603912353516
-10.581972122192383 -7.620231628417969 2.56225848197937
-20.373233795166016 4.360645294189453 5.317498207092285
-24.193891525268555 7.730876922607422 5.681436061859131
-23.211345672607422 8.543109893798828 5.663036823272705
-6.2296342849731445 2.6295089721679688 3.28425669670105
-20.092697143554688 6.271873474121094 5.2698259353637695
-27.882116317749023 11.07059097290039 6.231578350067139
-17.86528778076172 3.2759857177734375 5.023630142211914
-16.458999633789062 5.159324645996094 5.350519180297852
-4.620927810668945 1.7519760131835938 0.5982756614685059
-18.169387817382812 -0.3631744384765625 1.9081416130065918
-25.045034408569336 8.896286010742188 5.807150363922119
-5.379378318786621 -0.9016876220703125 0.47762733697891235
-23.35983657836914 6.3341217041015625 6.0530924797058105
-17.878372192382812 -1.6445541381835938 2.2882938385009766
-5.626514911651611 0.5580902099609375 4.424546241760254
-3.906101703643799 -5.923095703125 3.221653938293457
-5.000964164733887 -3.4149398803710938 3.2657437324523926
-4.275514602661133 -2.9464492797851562 4.509903430938721
-4.679924011230469 -2.9259262084960938 3.2001709938049316
-9.275703430175781 0.10882568359375 3.5924317836761475
-16.510173797607422 3.095745086669922 4.862470626831055
-17.256484985351562 -0.6510696411132812 2.831169605255127
-4.1908769607543945 1.4426116943359375 0.7332531213760376
-18.716707229614258 -1.8225021362304688 3.6054580211639404
-7.021245956420898 3.0987548828125 4.215634822845459
-9.0106201171875 -2.36138916015625 2.9517173767089844
-20.042091369628906 0.42974853515625 3.015761137008667
-9.211526870727539 -8.222908020019531 2.2534332275390625
-18.151363372802734 2.9046630859375 2.8635876178741455
-9.462783813476562 -4.596954345703125 3.601033926010132
-9.468250274658203 -7.357322692871094 3.232142686843872
-19.78179931640625 0.70648193359375 4.0555877685546875
-6.9992241859436035 -3.17620849609375 4.698242664337158
-9.858993530273438 3.458251953125 4.600271224975586
-5.172347068786621 0.05321502685546875 4.4283294677734375
-9.306445121765137 -7.691993713378906 0.9721070528030396
-5.011455059051514 0.5333938598632812 2.9508237838745117
-18.87543487548828 4.091575622558594 4.081019401550293
-17.34759521484375 0.42026519775390625 2.9318840503692627
-4.704285621643066 -3.7877349853515625 4.550347805023193
-17.410144805908203 -1.9941482543945312 2.7891135215759277
-18.532318115234375 3.0590362548828125 2.651366949081421
-18.381763458251953 -1.6597366333007812 2.513636589050293
-27.445301055908203 10.531169891357422 6.110076427459717
-8.93393325805664 -4.602912902832031 3.520106792449951
-18.50403594970703 7.0341033935546875 5.4015655517578125
-7.8384857177734375 -5.4784393310546875 2.2074732780456543
-8.90449047088623 2.0726394653320312 4.677184104919434
-4.004697322845459 -1.07940673828125 4.390444755554199
-5.953207492828369 -3.3291168212890625 3.4730429649353027
-20.977481842041016 5.159473419189453 5.866044998168945
-17.90776824951172 -1.3573226928710938 2.604297399520874
-3.955291748046875 -1.43878173828125 4.413973808288574
-8.247133255004883 1.3341293334960938 3.978376865386963
-9.732173919677734 -7.836235046386719 2.481125831604004
-18.991504669189453 -1.824462890625 2.922457695007324
-26.36112403869629 7.362640380859375 6.000931262969971
-4.0830793380737305 -3.3049545288085938 3.083517074584961
-7.462075233459473 -3.9900970458984375 4.593119144439697
-8.424238204956055 -2.411956787109375 3.9693641662597656
-4.5717453956604 2.9564361572265625 3.129610061645508
-6.09443473815918 -4.142303466796875 3.5664148330688477
-7.033740043640137 3.1148681640625 3.9576945304870605
-28.67269515991211 11.109933853149414 6.530013084411621
-8.363481521606445 -8.127166748046875 3.4032466411590576
-17.74822998046875 5.830879211425781 4.702967643737793
-19.01517105102539 7.441825866699219 5.420809745788574
-18.956069946289062 2.974395751953125 5.029741287231445
-5.532203674316406 2.221588134765625 0.7679148316383362
-8.58837890625 -4.3885650634765625 1.5230236053466797
-19.569442749023438 2.0062713623046875 3.2975480556488037
-5.256254196166992 -3.5717086791992188 3.332066059112549
-9.877279281616211 -7.703346252441406 3.7389464378356934
-20.245975494384766 7.813411712646484 5.556253910064697
-17.435321807861328 7.17254638671875 4.308293342590332
-6.845676898956299 1.2507400512695312 4.499151706695557
-5.544013977050781 -3.4026947021484375 4.612213134765625
-19.409027099609375 1.9420700073242188 2.7604665756225586
-19.08987045288086 -0.9877395629882812 1.823335886001587
-17.29219627380371 -1.5686111450195312 3.4418604373931885
-9.71393871307373 -7.6906890869140625 2.3160407543182373
-4.321234226226807 -3.4530792236328125 4.524203777313232
-9.575183868408203 -7.85986328125 0.9090973138809204
-18.674503326416016 6.86346435546875 4.67717170715332
-8.441680908203125 -4.6072235107421875 3.360537052154541
-20.906641006469727 5.643157958984375 5.332465171813965
-16.669517517089844 5.999523162841797 4.852029323577881
-7.375813961029053 3.6817779541015625 3.129382610321045
-19.471927642822266 -2.464874267578125 2.3296244144439697
-18.728801727294922 -1.8400726318359375 1.7654194831848145
-4.716999530792236 -1.06884765625 4.4683709144592285
-20.167797088623047 -0.5026931762695312 3.2462143898010254
-10.051826477050781 -2.5681381225585938 4.78272819519043
-8.906944274902344 -2.9134597778320312 4.04089879989624
-9.423149108886719 -5.949005126953125 0.9695087671279907
-16.985212326049805 2.989208221435547 5.537701606750488
-23.10420036315918 9.195716857910156 5.756981372833252
-9.483551025390625 0.42620086669921875 4.875762939453125
-19.983928680419922 0.9796676635742188 3.342266082763672
-26.23454475402832 7.386745452880859 5.838650703430176
-18.99510955810547 5.0908966064453125 5.688404083251953
-5.486085891723633 -0.9859848022460938 0.844588041305542
-18.430831909179688 3.5020370483398438 4.253600597381592
-9.461433410644531 -4.667564392089844 1.1463745832443237
-6.7393903732299805 1.3876724243164062 3.7351953983306885
-6.093258857727051 -2.044097900390625 4.645954132080078
-9.125556945800781 3.6007919311523438 4.342991828918457
-19.425594329833984 -1.704803466796875 3.837001323699951
-5.091076850891113 3.1420440673828125 3.7314181327819824
-4.319377899169922 -5.329856872558594 4.410154342651367
-6.531705856323242 0.1588134765625 4.574010848999023
-7.898988723754883 -8.393363952636719 1.6991620063781738
-18.412986755371094 1.47686767578125 4.729874134063721
-17.096019744873047 6.688514709472656 4.399835586547852
-7.266024112701416 -3.7803955078125 3.816143035888672
-22.674869537353516 8.119037628173828 5.5907793045043945
-5.4904279708862305 -6.164970397949219 3.829244375228882
-8.357243537902832 -7.3573150634765625 3.1910958290100098
-19.986602783203125 0.47760772705078125 2.8550026416778564
-9.408638000488281 -2.2129058837890625 2.536902904510498
-5.286425590515137 -1.299285888671875 4.54833459854126
-20.118656158447266 -0.049102783203125 3.228163480758667
-18.813278198242188 4.456199645996094 3.896507501602173
-19.67743682861328 -1.7377700805664062 2.2795069217681885
-17.880123138427734 -2.0786514282226562 2.0071537494659424
-9.396828651428223 -7.7642974853515625 1.9841252565383911
-4.5875163078308105 -0.09641265869140625 0.4657474756240845
-4.96972131729126 0.6668930053710938 2.047304153442383
-17.741912841796875 6.484214782714844 4.518156051635742
-16.900474548339844 2.2677268981933594 4.952247619628906
-7.952396869659424 2.37322998046875 3.7778725624084473
-18.95276641845703 5.0812530517578125 4.966894149780273
-25.37823486328125 8.80044174194336 5.824915885925293
-5.779163837432861 1.8143844604492188 0.4827283024787903
-6.977664947509766 3.3459091186523438 4.017205238342285
-8.149090766906738 -2.9652328491210938 3.948805332183838
-7.142106056213379 -0.9508743286132812 4.709497928619385
-27.60761070251465 10.940349578857422 6.17786169052124
-17.32048988342285 3.9610824584960938 4.9469895362854
-4.398067474365234 -3.0055694580078125 3.145023822784424
-5.749417781829834 -1.1610794067382812 4.588093280792236
-9.901140213012695 2.3128890991210938 4.250677585601807
-17.567665100097656 4.3170013427734375 5.569486618041992
-3.578369140625 -4.788475036621094 3.0297608375549316
-22.545448303222656 7.710968017578125 5.544638156890869
-9.466415405273438 -5.2527618408203125 1.0640805959701538
-6.52292537689209 -0.32373046875 4.609718322753906
-7.954914569854736 -8.432121276855469 2.2679567337036133
-8.792434692382812 -1.3734130859375 4.004568099975586
-10.381837844848633 -7.097999572753906 1.4317232370376587
-17.438800811767578 -1.3573226928710938 3.565591335296631
-10.099746704101562 -4.872108459472656 1.4609661102294922
-18.242328643798828 -1.3573226928710938 2.4634451866149902
-19.9834041595459 6.939647674560547 5.631014347076416
-19.259540557861328 -1.7601089477539062 2.846121311187744
-18.280879974365234 6.6404876708984375 4.745407581329346
-17.802322387695312 6.8892974853515625 5.142411231994629
-18.987462997436523 -1.979248046875 3.137464761734009
-10.225421905517578 -4.636100769042969 2.8427019119262695
-8.482818603515625 -5.6477203369140625 3.5731916427612305
-16.49154281616211 2.565113067626953 4.8731255531311035
-17.958242416381836 -2.3345108032226562 2.2136127948760986
-19.107545852661133 -1.6200408935546875 3.2207117080688477
-4.742489814758301 0.46344757080078125 2.058133125305176
-4.19230842590332 -4.071220397949219 3.123511791229248
-10.338752746582031 -5.910652160644531 3.2216129302978516
-7.5018415451049805 -1.1985092163085938 4.747643947601318
-4.6083221435546875 -3.0476226806640625 3.1862266063690186
-5.912158012390137 -5.0122833251953125 4.421309471130371
-7.078952789306641 2.570037841796875 3.3929104804992676
-4.0590033531188965 2.6042556762695312 3.8371548652648926
-10.4046630859375 -7.535270690917969 1.4531326293945312
-10.681961059570312 -6.700736999511719 2.597795009613037
-18.484375 4.455039978027344 4.264411926269531
-17.736032485961914 6.931709289550781 4.839663505554199
-18.603187561035156 5.4927825927734375 4.091191291809082
-5.017638206481934 -3.725860595703125 3.287628173828125
-17.228797912597656 -1.4782180786132812 2.836946487426758
-26.088054656982422 7.3197021484375 6.079344749450684
-17.2849178314209 4.575702667236328 4.9546942710876465
-10.140522003173828 -7.825653076171875 2.584099769592285
-19.859050750732422 0.46688079833984375 3.998009204864502
-9.055854797363281 0.11090850830078125 3.914597511291504
-8.217483520507812 -4.783111572265625 3.1794025897979736
-4.692724227905273 -0.03197479248046875 4.37849235534668
-10.607994079589844 -5.9407501220703125 2.212467670440674
-6.70003604888916 -1.9234848022460938 4.695048809051514
-8.218650817871094 -3.7742843627929688 4.588420867919922
-4.243276119232178 1.7317886352539062 1.3857672214508057
-19.01358985900879 -2.6140518188476562 2.134610652923584
-8.090786933898926 -2.8760147094726562 4.757044315338135
-8.771747589111328 3.1111602783203125 3.921481132507324
-8.531290054321289 -7.640937805175781 2.857605457305908
-5.777748107910156 2.8426513671875 3.109696388244629
-5.186446666717529 2.198638916015625 4.087978363037109
-10.32967758178711 -7.724609375 2.114833354949951
-17.575584411621094 4.8967437744140625 5.531089782714844
-17.587406158447266 3.2171096801757812 5.584161758422852
-18.65462875366211 7.00146484375 5.23908805847168
-27.103267669677734 10.102813720703125 6.288735866546631
-22.196043014526367 6.689525604248047 5.467351913452148
-9.358638763427734 -8.390914916992188 3.8107337951660156
-18.550294876098633 7.16925048828125 5.248210906982422
-5.5064849853515625 -4.267791748046875 3.4384922981262207
-6.041556358337402 -5.438446044921875 3.495624303817749
-18.11786460876465 -1.2630615234375 1.868669033050537
-9.086896896362305 -7.596771240234375 3.7661800384521484
-8.701861381530762 -8.242462158203125 3.761434555053711
-3.7286148071289062 -0.9604721069335938 3.0610404014587402
-5.751312732696533 -0.7656173706054688 0.348560631275177
-4.810063362121582 1.4247055053710938 0.5838165879249573
-7.890580654144287 3.06292724609375 4.355742454528809
-5.677988529205322 -5.704437255859375 4.126678943634033
-4.999824047088623 0.37419891357421875 0.8836190104484558
-17.689815521240234 6.5154571533203125 4.237613201141357
-6.448530197143555 -2.2293319702148438 3.5460824966430664
-10.051836967468262 -7.9652099609375 1.1281431913375854
-18.853431701660156 -1.789886474609375 4.4131999015808105
-17.004358291625977 5.218509674072266 5.430212020874023
-9.4740571975708 -7.3573150634765625 1.2580817937850952
-19.864757537841797 5.046134948730469 5.2210798263549805
-5.944761276245117 2.4873199462890625 4.141197681427002
-3.998436450958252 3.1610260009765625 2.780191659927368
-17.288211822509766 -1.9373245239257812 3.865614414215088
-8.780693054199219 -1.3026657104492188 4.857880592346191
-10.182458877563477 -7.3573150634765625 3.339613199234009
-8.687023162841797 -2.1830673217773438 4.837871551513672
-7.872951507568359 -5.425758361816406 2.699718952178955
-5.061488628387451 -1.7387313842773438 4.546356201171875
-9.719329833984375 -1.8466415405273438 4.181121826171875
-25.895326614379883 8.168235778808594 6.2792840003967285
-18.623188018798828 7.0714263916015625 5.41421365737915
-17.427671432495117 -1.555419921875 4.155651092529297
-8.444892883300781 -1.0232391357421875 4.825035095214844
-20.128921508789062 -1.2039260864257812 3.752164840698242
-26.991445541381836 8.43475341796875 6.352317810058594
-5.429777145385742 -4.367401123046875 3.429259777069092
-22.01364517211914 6.988124847412109 5.4600725173950195
-9.942715644836426 -8.654563903808594 1.1725927591323853
-22.367599487304688 6.195030212402344 5.488802909851074
-9.312847137451172 -2.9698562622070312 2.030085563659668
-18.676761627197266 3.1345977783203125 2.85758113861084
-19.970489501953125 0.385009765625 2.756992816925049
-16.366384506225586 0.862274169921875 4.83228874206543
-9.650724411010742 -7.794677734375 2.8134231567382812
-9.428993225097656 -4.0944366455078125 3.3522353172302246
-25.88134002685547 8.886146545410156 6.251647472381592
-18.105215072631836 6.9923553466796875 5.203953742980957
-17.280344009399414 -1.52301025390625 3.3244314193725586
