# .PCD v0.7 - Point Cloud Data file format
VERSION 0.7
FIELDS x y z
SIZE 4 4 4
TYPE F F F
COUNT 1 1 1
WIDTH 864
HEIGHT 1
VIEWPOINT 0 0 0 1 0 0 0
POINTS 864
DATA ascii
1.2991409301757812 17.349206924438477 2.7617275714874268
1.5690574645996094 31.039615631103516 6.499458312988281
1.7041816711425781 14.067176818847656 2.9371132850646973
3.7585983276367188 30.706707000732422 6.703463554382324
1.7444496154785156 22.843219757080078 6.835267066955566
1.7381744384765625 15.152615547180176 2.998735189437866
0.2394256591796875 30.147323608398438 9.149511337280273
1.43927001953125 17.56214141845703 2.8420379161834717
0.253570556640625 26.318336486816406 8.151557922363281
2.1170082092285156 18.530609130859375 6.612763404846191
2.095245361328125 18.41008758544922 3.573256731033325
4.805076599121094 31.50255584716797 6.828243255615234
5.5871429443359375 31.820476531982422 6.9174485206604
1.8903732299804688 20.504837036132812 6.801365852355957
2.575969696044922 18.305889129638672 4.601279258728027
1.1634368896484375 20.610828399658203 3.1051599979400635
1.96148681640625 24.451946258544922 6.140504360198975
0.39670562744140625 20.04473114013672 7.664518356323242
1.9696731567382812 12.531042098999023 3.1635360717773438
1.6824951171875 24.46466827392578 4.574442386627197
2.4850425720214844 20.102336883544922 5.1145405769348145
0.22707366943359375 28.378036499023438 9.848043441772461
5.96087646484375 32.137733459472656 7.258155822753906
4.288597106933594 30.325946807861328 6.76002311706543
0.822021484375 13.41602897644043 2.441272735595703
3.7846755981445312 30.845989227294922 6.708318710327148
0.1494903564453125 28.247234344482422 11.309536933898926
2.1025238037109375 22.8333740234375 6.161712646484375
0.13173294067382812 33.49293518066406 13.705787658691406
0.4506340026855469 29.382854461669922 7.615450859069824
0.001163482666015625 21.98771095275879 3.0556368827819824
2.2157936096191406 20.079124450683594 6.337946891784668
0.02300262451171875 34.9969367980957 15.108912467956543
8.569759368896484 31.952499389648438 7.516568183898926
4.737293243408203 30.387340545654297 7.153470039367676
6.148654937744141 31.20782470703125 6.9747138023376465
6.549854278564453 32.203678131103516 7.325621604919434
1.7686996459960938 20.630220413208008 6.946774005889893
0.2581634521484375 26.22168731689453 7.983771324157715
1.9456443786621094 22.921417236328125 6.51737642288208
0.24344635009765625 29.968475341796875 7.808104515075684
0.08810043334960938 34.30945587158203 14.379049301147461
1.3979377746582031 22.411575317382812 7.2090888023376465
0.8929595947265625 19.512596130371094 7.535055160522461
0.20195770263671875 17.129173278808594 7.683854103088379
2.304485321044922 17.986406326293945 3.818673610687256
6.113555908203125 33.26341247558594 7.125077247619629
2.5705909729003906 12.341550827026367 5.7891716957092285
0.200439453125 26.281524658203125 8.972877502441406
0.0328826904296875 25.611434936523438 4.021052360534668
0.08175277709960938 33.16356658935547 16.08608627319336
0.13227081298828125 31.39034652709961 14.319975852966309
0.18774032592773438 31.822044372558594 11.652117729187012
2.1590576171875 14.828570365905762 6.60295295715332
1.5542335510253906 22.398216247558594 3.7793221473693848
2.1417503356933594 23.366962432861328 5.667960166931152
0.3385353088378906 14.861621856689453 2.372410297393799
3.198394775390625 29.822364807128906 7.005650997161865
1.2827644348144531 17.214656829833984 2.7490527629852295
1.9828376770019531 23.789363861083984 6.269128799438477
5.379798889160156 31.285701751708984 7.217471122741699
0.3747444152832031 33.302730560302734 7.572811126708984
1.2691535949707031 19.070215225219727 7.357739448547363
10.400434494018555 33.42235565185547 7.6529083251953125
0.0960693359375 33.467674255371094 12.286528587341309
1.8914222717285156 12.6411771774292 6.927230358123779
4.434051513671875 29.000160217285156 6.825290203094482
1.7559127807617188 15.577239990234375 3.025907039642334
2.1494178771972656 19.71515655517578 6.493131160736084
0.2711830139160156 14.569768905639648 7.676607131958008
0.2405242919921875 30.105636596679688 8.96358585357666
2.0843544006347656 20.60312271118164 3.9625167846679688
1.304107666015625 25.175758361816406 4.4004387855529785
0.1364288330078125 31.250572204589844 14.1184663772583
0.6493034362792969 15.903095245361328 2.4601759910583496
1.9701805114746094 19.018674850463867 6.770307540893555
1.4672698974609375 28.483612060546875 6.828768253326416
0.10201263427734375 31.786758422851562 15.162314414978027
0.160186767578125 30.79949188232422 13.212446212768555
4.945415496826172 29.278839111328125 6.888920783996582
0.11198806762695312 33.5700798034668 13.021744728088379
1.9302597045898438 28.499317169189453 6.871304988861084
1.5643806457519531 14.124429702758789 2.82416033744812
0.23831558227539062 29.37529754638672 9.746513366699219
0.14997100830078125 32.40793228149414 14.392847061157227
0.06227874755859375 27.22881317138672 11.053523063659668
2.23760986328125 22.34709930419922 5.849499225616455
1.1851005554199219 18.07781982421875 7.412703514099121
1.7962532043457031 19.310333251953125 6.968615531921387
0.18597412109375 27.825401306152344 10.345193862915039
0.12491607666015625 28.399616241455078 11.72587776184082
2.2938385009765625 14.066831588745117 3.6061723232269287
1.386627197265625 28.461097717285156 6.271056652069092
2.6228294372558594 17.859493255615234 5.437223434448242
0.5207061767578125 26.685287475585938 7.6119704246521
1.47216796875 27.53127670288086 5.744422435760498
2.2577552795410156 22.39704132080078 5.588327407836914
3.1609954833984375 29.82964324951172 6.629098415374756
0.20196533203125 28.541576385498047 10.584423065185547
0.060146331787109375 33.75962829589844 12.506132125854492
1.175201416015625 27.911422729492188 5.338559150695801
2.4940643310546875 17.990917205810547 4.235753059387207
1.0167884826660156 19.797260284423828 2.915771961212158
2.0925331115722656 18.786296844482422 6.631012916564941
0.203704833984375 31.291656494140625 10.23826789855957
2.3589096069335938 19.309911727905273 6.138646602630615
0.24821853637695312 29.709453582763672 8.906182289123535
2.4591407775878906 14.817832946777344 6.101667404174805
0.10050201416015625 27.01929473876953 10.614402770996094
3.7838897705078125 32.095802307128906 6.975364685058594
2.7735328674316406 29.70110321044922 6.583261013031006
2.882354736328125 30.040058135986328 6.97303581237793
9.469524383544922 34.16001510620117 7.556004047393799
0.230682373046875 20.341442108154297 7.680747032165527
7.504055023193359 30.8828125 7.380637168884277
1.4024658203125 25.924606323242188 4.806275367736816
0.149322509765625 32.55619430541992 14.471755981445312
0.9717750549316406 21.052587509155273 7.495795726776123
1.60467529296875 26.94080352783203 5.795129776000977
1.8340835571289062 23.82337188720703 4.611170291900635
4.356842041015625 29.560928344726562 7.101934432983398
0.6917877197265625 27.57266616821289 4.812709808349609
1.6919708251953125 25.013057708740234 4.840496063232422
1.9576911926269531 14.08755874633789 6.852938175201416
0.18262481689453125 30.778099060058594 12.518949508666992
0.194488525390625 30.299362182617188 11.878829956054688
1.0145797729492188 15.615108489990234 7.504264831542969
0.15010833740234375 32.70525360107422 14.370427131652832
0.24140548706054688 32.816307067871094 6.347449779510498
1.2358856201171875 28.65224838256836 5.78257942199707
2.543609619140625 29.26788330078125 6.56163215637207
1.840240478515625 27.456798553466797 6.529482841491699
2.205322265625 14.254076957702637 3.4718501567840576
0.206298828125 30.524478912353516 11.46031379699707
0.2084197998046875 30.540306091308594 11.297850608825684
9.195003509521484 33.75377655029297 7.3548078536987305
0.09796524047851562 31.946014404296875 8.640338897705078
2.4445533752441406 20.341400146484375 5.572342872619629
0.6079063415527344 18.41873550415039 7.6242876052856445
1.4213447570800781 20.24238395690918 3.203510284423828
2.5602798461914062 17.8514461517334 4.408430576324463
4.353374481201172 31.04849624633789 6.772767066955566
0.5395774841308594 29.298439025878906 7.575562000274658
4.767635345458984 32.63619613647461 6.9102396965026855
1.7776222229003906 31.816978454589844 6.637698173522949
0.6940116882324219 29.688507080078125 5.536333084106445
3.379413604736328 28.550128936767578 6.696284294128418
5.892646789550781 30.47403335571289 6.958330154418945
2.6397132873535156 17.050914764404297 5.443997383117676
2.172382354736328 21.204252243041992 4.255287170410156
2.5418548583984375 19.435768127441406 5.19819974899292
0.2120819091796875 25.904682159423828 8.590850830078125
0.5442924499511719 33.746559143066406 7.100902557373047
5.367824554443359 31.419776916503906 6.887878894805908
1.1219940185546875 23.895355224609375 7.371993064880371
0.11713027954101562 32.08662033081055 15.174928665161133
2.4119720458984375 20.649789810180664 5.695269584655762
8.730924606323242 33.002357482910156 7.273791313171387
1.9034767150878906 29.527931213378906 6.8775787353515625
1.0711212158203125 30.131103515625 6.248250961303711
0.7327804565429688 16.830615997314453 2.5135464668273926
0.104248046875 26.038875579833984 9.610652923583984
6.810211181640625 31.833038330078125 7.048497200012207
2.1396522521972656 15.112849235534668 6.627086639404297
0.6829757690429688 29.31543731689453 7.498565673828125
0.2012786865234375 31.369552612304688 10.345479011535645
0.09910202026367188 32.83442687988281 15.942606925964355
1.319976806640625 26.312889099121094 4.863905906677246
9.982948303222656 33.28119659423828 7.433392524719238
2.1848793029785156 23.05813980102539 5.579696178436279
0.2228546142578125 30.407203674316406 7.975960731506348
4.033565521240234 29.44475555419922 7.073354721069336
1.8188323974609375 24.303085327148438 6.564775466918945
2.6511573791503906 13.551907539367676 4.4895920753479
2.4862709045410156 19.900146484375 5.446228504180908
0.25384521484375 28.23654556274414 8.854766845703125
1.03533935546875 15.14564037322998 2.5545146465301514
5.271411895751953 29.412872314453125 7.148580551147461
4.411495208740234 30.180999755859375 6.777338027954102
2.2718276977539062 22.249465942382812 5.211242198944092
0.06859588623046875 32.895362854003906 10.528640747070312
2.0044479370117188 28.68777084350586 6.503995895385742
2.039234161376953 31.80087661743164 6.62881326675415
1.4367485046386719 29.248767852783203 6.831644535064697
0.2672271728515625 27.081336975097656 8.024243354797363
0.05936431884765625 23.556678771972656 3.4496231079101562
4.261177062988281 28.239849090576172 6.93692684173584
4.6009063720703125 29.6649169921875 7.124310493469238
1.1468353271484375 12.553375244140625 2.5659255981445312
0.462860107421875 16.86503791809082 7.658411979675293
3.320720672607422 31.70401382446289 6.699058532714844
0.15892791748046875 32.61464309692383 13.767285346984863
0.111663818359375 31.445941925048828 14.708137512207031
2.7661285400390625 28.590988159179688 6.941728591918945
2.0797119140625 18.619691848754883 3.590217351913452
2.3527603149414062 16.128761291503906 3.7862019538879395
0.1248931884765625 33.7651481628418 14.30551528930664
7.0637054443359375 31.06119155883789 7.097393035888672
0.2511749267578125 28.295867919921875 8.978035926818848
2.5819358825683594 17.003353118896484 5.719539642333984
2.0966644287109375 20.466737747192383 6.5277605056762695
1.1605148315429688 26.8079833984375 4.874530792236328
0.6510353088378906 31.92333221435547 7.38568115234375
0.6646995544433594 12.869827270507812 2.3935508728027344
0.22088623046875 30.31012725830078 10.520112991333008
8.805339813232422 32.20911407470703 7.286494255065918
0.14717483520507812 33.13809585571289 14.015274047851562
0.2978057861328125 20.26357650756836 2.785287380218506
4.337562561035156 31.897056579589844 7.074173927307129
2.319164276123047 21.23921012878418 4.665818214416504
0.23189544677734375 28.38259506225586 9.713207244873047
10.300374984741211 33.734466552734375 7.503546714782715
0.20084381103515625 26.56219482421875 9.147590637207031
0.6646270751953125 27.292491912841797 4.703646659851074
1.8449249267578125 25.474868774414062 6.03702449798584
0.5593376159667969 15.595165252685547 2.423429250717163
0.24161911010742188 32.928382873535156 7.655491828918457
0.8115806579589844 29.652847290039062 5.619882583618164
1.27703857421875 24.762855529785156 7.223855972290039
1.7323074340820312 24.938636779785156 6.628787040710449
0.374725341796875 23.219276428222656 3.397207021713257
0.9878273010253906 15.933477401733398 2.5627992153167725
1.0659446716308594 17.5563907623291 7.480226516723633
1.7511672973632812 22.541793823242188 4.0437421798706055
0.22381973266601562 14.909346580505371 2.362575054168701
6.684844970703125 32.61394500732422 7.060065269470215
0.6058998107910156 17.373037338256836 7.627639293670654
1.7198028564453125 28.2032470703125 6.476171493530273
2.621410369873047 31.73810577392578 6.6519083976745605
0.296295166015625 31.13341522216797 7.650735378265381
0.6447105407714844 16.23621368408203 7.615981101989746
0.8996047973632812 26.954269409179688 4.715135097503662
1.479827880859375 25.42589569091797 6.961325168609619
4.117595672607422 28.94806671142578 6.78249979019165
0.22570037841796875 26.44872283935547 8.730472564697266
2.7803955078125 27.657161712646484 6.6749138832092285
7.620807647705078 33.410675048828125 7.3751397132873535
1.1751594543457031 20.10445213317871 3.041738986968994
0.0757293701171875 30.520404815673828 14.267156600952148
4.07830810546875 31.047351837158203 6.743010520935059
1.3314476013183594 17.800382614135742 2.809107780456543
0.20822906494140625 29.948680877685547 11.210283279418945
0.3739013671875 30.31728744506836 7.632568836212158
2.362712860107422 29.869922637939453 6.920873641967773
1.3743820190429688 15.847051620483398 7.31697940826416
1.583770751953125 26.857688903808594 6.47674560546875
1.347442626953125 27.21295166015625 6.9473185539245605
0.1730499267578125 31.831462860107422 13.17558479309082
0.2265777587890625 28.58466339111328 9.9957275390625
0.72027587890625 21.7231502532959 7.57914400100708
0.109832763671875 32.045875549316406 9.022666931152344
4.648540496826172 30.885597229003906 7.146416664123535
3.66461181640625 31.423030853271484 6.715665817260742
0.2628173828125 29.360824584960938 7.6582841873168945
0.19278717041015625 28.86412811279297 11.039104461669922
2.229839324951172 29.185028076171875 6.908496856689453
2.5686416625976562 13.010995864868164 5.795600891113281
0.1540679931640625 32.70189666748047 12.143268585205078
4.908393859863281 32.44168472290039 6.894697666168213
0.7241172790527344 13.382429122924805 7.591329574584961
1.1171722412109375 27.83861541748047 7.187084197998047
0.15803146362304688 32.69363021850586 12.374567031860352
0.293060302734375 26.893077850341797 4.4530534744262695
9.555500030517578 32.65797424316406 7.377130508422852
0.15322113037109375 32.793495178222656 14.08533000946045
1.169952392578125 25.22235870361328 7.290672302246094
6.107170104980469 32.78879928588867 7.019604682922363
2.4389381408691406 19.347240447998047 5.8688273429870605
1.0753631591796875 24.575054168701172 7.386152267456055
0.1725311279296875 30.693645477294922 12.83269214630127
1.5564422607421875 17.711790084838867 2.9364829063415527
0.2655792236328125 26.394485473632812 7.875645160675049
2.2986984252929688 19.193687438964844 4.062532901763916
4.217906951904297 29.85784912109375 7.098628044128418
8.330646514892578 32.47091293334961 7.509803295135498
3.2346267700195312 29.29815673828125 6.645926475524902
2.6189956665039062 28.769054412841797 6.578166961669922
1.0938186645507812 13.426922798156738 7.46530294418335
2.6597442626953125 13.495550155639648 5.4261016845703125
2.20849609375 18.213363647460938 6.5106000900268555
0.27147674560546875 28.472415924072266 7.914068222045898
5.044849395751953 29.85417938232422 6.870814323425293
5.123497009277344 29.476898193359375 7.148992538452148
2.4546127319335938 20.089200973510742 4.7964253425598145
0.13769912719726562 32.10212707519531 14.689245223999023
0.12491607666015625 24.477577209472656 3.6839680671691895
3.115985870361328 29.57888412475586 6.994617462158203
1.321685791015625 25.706283569335938 7.131618976593018
7.659904479980469 32.81528091430664 7.157557487487793
1.6607208251953125 24.282596588134766 4.486784934997559
2.630817413330078 17.65673065185547 4.6371893882751465
4.897785186767578 28.93175506591797 7.082752704620361
0.082916259765625 31.024864196777344 14.677694320678711
1.4159889221191406 19.530776977539062 3.093313217163086
0.10974884033203125 28.64449691772461 12.120737075805664
7.127582550048828 32.00405502319336 7.390777111053467
0.9286117553710938 16.815650939941406 7.530975818634033
3.889141082763672 32.383522033691406 6.957067012786865
0.2439727783203125 27.910480499267578 9.126033782958984
1.3353614807128906 15.215211868286133 2.7168498039245605
0.13640594482421875 28.802947998046875 11.98910140991211
0.25724029541015625 28.395050048828125 8.765002250671387
0.198822021484375 31.41714096069336 11.529581069946289
2.242809295654297 22.353958129882812 5.060727119445801
2.6459503173828125 16.24874496459961 4.662686347961426
0.587310791015625 28.048072814941406 4.9172773361206055
2.29217529296875 21.176414489746094 4.5573039054870605
0.12990188598632812 32.79813003540039 15.326513290405273
0.1759185791015625 31.827587127685547 12.967720985412598
1.7168045043945312 26.8350830078125 6.570649147033691
0.184234619140625 30.12002182006836 7.684087753295898
0.2457427978515625 27.540313720703125 8.94022274017334
0.2660865783691406 12.566205024719238 2.3261003494262695
2.3896484375 20.751955032348633 4.746581077575684
1.4758644104003906 13.587018966674805 2.7419843673706055
0.16246795654296875 32.36808395385742 11.416215896606445
6.4037628173828125 31.59646224975586 7.320615291595459
1.024383544921875 25.57415008544922 4.316129684448242
0.1563568115234375 29.01925277709961 11.867765426635742
0.4028358459472656 21.14631462097168 2.907602310180664
0.11288070678710938 33.942108154296875 14.14788818359375
2.3070449829101562 20.051837921142578 6.171475887298584
6.4063568115234375 32.89728546142578 7.261300086975098
2.879302978515625 29.221481323242188 6.967928886413574
1.6838035583496094 19.680700302124023 7.051108360290527
0.5830078125 32.152042388916016 7.4488725662231445
1.3741836547851562 31.341758728027344 6.719471454620361
2.3885955810546875 27.531814575195312 6.85081148147583
0.1332855224609375 33.15257263183594 12.48667049407959
0.077972412109375 25.152423858642578 9.067439079284668
0.8709754943847656 22.364601135253906 3.3219878673553467
0.12299346923828125 33.932861328125 15.079760551452637
0.1718292236328125 26.229637145996094 9.261848449707031
2.618366241455078 17.853836059570312 4.6683878898620605
0.6410293579101562 33.0935173034668 7.180596351623535
7.826805114746094 31.343936920166016 7.194791316986084
5.939571380615234 29.9449462890625 7.228013038635254
2.561260223388672 16.13919448852539 5.795884132385254
2.5731658935546875 13.462234497070312 5.78068208694458
0.2375946044921875 30.070579528808594 9.4564208984375
4.213893890380859 28.375259399414062 6.996898651123047
0.2093963623046875 30.605754852294922 11.193389892578125
2.0519866943359375 22.85922622680664 4.6541314125061035
4.620281219482422 30.222042083740234 6.802340507507324
2.3509140014648438 20.24867820739746 4.462316513061523
0.2495880126953125 25.213226318359375 7.70985221862793
2.597057342529297 18.27010726928711 5.421844959259033
1.8984489440917969 17.270278930664062 6.9219160079956055
2.2952232360839844 22.00197982788086 5.1072845458984375
1.756744384765625 20.528072357177734 3.526317834854126
0.09172821044921875 32.76959228515625 10.524862289428711
0.5999221801757812 28.56456756591797 5.098304748535156
0.2412109375 20.65420150756836 2.8292593955993652
0.23117828369140625 20.587730407714844 7.680692195892334
3.3595008850097656 28.841476440429688 6.996016502380371
4.030952453613281 32.12535858154297 6.796505451202393
0.7936820983886719 29.995101928710938 5.729312896728516
1.3690948486328125 26.390403747558594 7.009047031402588
6.988075256347656 33.252960205078125 7.136716842651367
3.1001663208007812 31.211463928222656 6.651613235473633
0.6459770202636719 18.852981567382812 7.611374855041504
8.734439849853516 33.12760925292969 7.276695251464844
1.2416763305664062 27.721435546875 7.043375492095947
2.0394287109375 20.79073143005371 6.603982925415039
1.2501068115234375 26.151172637939453 7.179083824157715
0.3710136413574219 18.007539749145508 2.5064680576324463
3.7163429260253906 31.154647827148438 7.036206245422363
0.22895431518554688 15.407825469970703 7.681005477905273
0.11802291870117188 32.120262145996094 9.299104690551758
0.7731132507324219 15.086254119873047 2.4726498126983643
0.10703277587890625 32.22968292236328 15.46463394165039
1.9282646179199219 16.966815948486328 3.220982074737549
0.8316383361816406 17.016956329345703 7.560041904449463
1.1723403930664062 23.380760192871094 7.3532328605651855
0.8876686096191406 20.116867065429688 2.9062838554382324
0.2609100341796875 25.961322784423828 7.783641338348389
0.8606033325195312 12.621374130249023 2.452977180480957
0.13621139526367188 33.50061798095703 14.296089172363281
3.56298828125 30.507362365722656 6.679400444030762
2.4222793579101562 28.045578002929688 6.890594005584717
4.410076141357422 29.743614196777344 6.7835564613342285
0.1978759765625 30.03754425048828 11.651111602783203
2.6716957092285156 13.527761459350586 5.304754257202148
0.21672821044921875 30.61986541748047 8.360576629638672
0.23358154296875 26.44782257080078 8.58102798461914
5.911823272705078 32.275508880615234 7.245572090148926
0.08258438110351562 32.939579010009766 16.053728103637695
1.2321395874023438 31.40064239501953 6.51419734954834
0.2401275634765625 26.72637939453125 8.602046012878418
9.544652938842773 32.98173904418945 7.628866672515869
1.8288116455078125 21.817617416381836 6.8047027587890625
0.46662139892578125 18.435697555541992 2.570068359375
0.194366455078125 31.528564453125 10.285050392150879
1.0992507934570312 29.759716033935547 6.95523738861084
0.15522003173828125 31.595130920410156 8.814554214477539
0.19481658935546875 29.591571807861328 11.50322151184082
3.7581138610839844 27.898563385009766 6.8839945793151855
0.0748748779296875 31.97186279296875 15.665098190307617
0.173553466796875 24.9501953125 3.8252673149108887
0.136077880859375 33.48447036743164 13.988813400268555
0.21540069580078125 30.922157287597656 10.043004989624023
0.224212646484375 30.53558349609375 8.503913879394531
0.08325958251953125 32.57220458984375 9.936728477478027
8.605182647705078 31.299415588378906 7.449511528015137
2.4706954956054688 20.352249145507812 5.300447940826416
0.15233612060546875 28.149044036865234 11.1776123046875
1.7807960510253906 22.41527557373047 6.8210906982421875
2.4288101196289062 15.094441413879395 3.8929522037506104
2.58294677734375 16.34285545349121 4.366727352142334
0.21101760864257812 28.793006896972656 10.538220405578613
1.6285438537597656 23.073699951171875 4.0633745193481445
0.20360565185546875 27.869415283203125 10.06889533996582
2.1673545837402344 20.171470642089844 6.420685768127441
0.09427261352539062 34.64945983886719 15.708386421203613
0.07183837890625 30.776123046875 5.662394046783447
0.2198638916015625 30.753131866455078 9.113334655761719
1.248046875 27.86309814453125 7.0185017585754395
0.1797943115234375 30.683582305908203 12.596837043762207
1.5228080749511719 16.134145736694336 7.229221343994141
2.328582763671875 15.85042953491211 3.732116460800171
0.987152099609375 30.310302734375 6.13524055480957
1.3422470092773438 28.699241638183594 6.820261478424072
0.080047607421875 25.319007873535156 9.175613403320312
9.045795440673828 32.857173919677734 7.5800580978393555
1.3021011352539062 14.864662170410156 2.688458204269409
1.3704833984375 19.72450065612793 3.093857526779175
9.559440612792969 32.20967483520508 7.4070892333984375
8.439107894897461 33.79460144042969 7.305795192718506
2.18853759765625 27.949562072753906 6.869339942932129
10.409461975097656 34.20458221435547 7.575960636138916
1.1095924377441406 14.393731117248535 7.4573564529418945
0.27099609375 16.923824310302734 7.677117347717285
2.642108917236328 15.151531219482422 4.530733108520508
7.366756439208984 32.566036224365234 7.405873775482178
0.0713958740234375 34.09589385986328 13.47503662109375
0.415313720703125 26.92703628540039 4.495629787445068
0.13767623901367188 31.982372283935547 14.6051607131958
0.1043243408203125 31.12085723876953 5.774898529052734
0.26145172119140625 27.534500122070312 8.365568161010742
0.2082977294921875 31.148040771484375 10.233253479003906
2.4547119140625 28.338451385498047 6.574174404144287
0.28839874267578125 14.140438079833984 7.674785137176514
0.2460479736328125 27.67525863647461 8.982202529907227
2.3584938049316406 21.269866943359375 5.781947135925293
0.24043655395507812 29.115970611572266 5.152651309967041
2.691333770751953 13.715147972106934 5.0982890129089355
0.6042404174804688 13.52495288848877 7.6277008056640625
0.4684028625488281 33.2780876159668 7.486363410949707
4.161228179931641 30.177352905273438 7.09815788269043
5.496131896972656 31.347747802734375 7.228797912597656
0.18497467041015625 31.900474548339844 11.165452003479004
0.15648651123046875 32.83563995361328 12.85409164428711
8.042671203613281 33.29262924194336 7.447923183441162
4.154850006103516 28.540573120117188 6.829361915588379
0.10328292846679688 34.407371520996094 15.858888626098633
2.1724700927734375 19.254119873046875 3.8415074348449707
5.110248565673828 31.214393615722656 6.857027053833008
0.2145233154296875 24.44652557373047 7.9191484451293945
1.6345024108886719 12.355182647705078 2.864832878112793
2.1187591552734375 20.728702545166016 6.464099884033203
4.053642272949219 28.922611236572266 7.04910945892334
0.5235443115234375 31.55023956298828 6.071608066558838
4.08001708984375 28.52881622314453 7.013772964477539
1.8350791931152344 22.362411499023438 4.088969707489014
0.9466934204101562 20.27396011352539 2.944659471511841
0.26953125 27.553504943847656 8.055096626281738
1.0484123229980469 20.741060256958008 7.457979202270508
2.235706329345703 15.957796096801758 6.507898330688477
2.4880714416503906 17.473054885864258 4.102829933166504
1.57965087890625 26.411476135253906 5.320246696472168
0.1372528076171875 23.912681579589844 8.248303413391113
0.10882949829101562 34.326847076416016 15.737963676452637
1.7133255004882812 26.03411865234375 6.367140769958496
2.5131874084472656 18.110666275024414 4.334654808044434
0.2576751708984375 28.64352035522461 8.767232894897461
0.2119598388671875 31.034896850585938 10.31459903717041
4.002079010009766 28.887969970703125 6.768901348114014
1.5566024780273438 13.48400592803955 2.8009033203125
1.7678794860839844 17.09469223022461 7.030430793762207
0.5901069641113281 20.058740615844727 2.808717727661133
0.124114990234375 30.340042114257812 13.543482780456543
3.2756500244140625 31.187625885009766 6.981654644012451
2.6514511108398438 14.076120376586914 5.48431396484375
0.2979545593261719 32.19752883911133 6.164490222930908
4.891941070556641 32.57966613769531 6.9090704917907715
0.1471099853515625 32.834129333496094 12.187410354614258
2.6758575439453125 16.675312042236328 4.997888088226318
1.75787353515625 27.560131072998047 6.512594223022461
0.37569427490234375 12.29409408569336 2.33689284324646
2.2835540771484375 19.06656265258789 4.0072021484375
1.6154289245605469 22.546428680419922 7.016963958740234
7.247123718261719 33.27153778076172 7.155021667480469
2.2084274291992188 22.603336334228516 5.855672836303711
0.1910400390625 26.024768829345703 8.929987907409668
2.3751487731933594 20.13365936279297 5.934621810913086
3.378063201904297 28.662933349609375 6.988554000854492
1.62847900390625 26.272144317626953 6.555105209350586
2.045501708984375 31.53240203857422 6.587668418884277
2.008960723876953 29.311431884765625 6.495434284210205
2.45166015625 20.354726791381836 4.978135108947754
0.2515907287597656 29.725265502929688 8.048005104064941
6.4485015869140625 30.12189483642578 7.073004722595215
2.351398468017578 17.322124481201172 6.295741081237793
1.0827522277832031 16.24509048461914 7.471423625946045
0.624420166015625 33.22935104370117 7.166264057159424
1.224578857421875 28.976062774658203 5.942931175231934
0.1928253173828125 31.42376708984375 9.785975456237793
1.0414276123046875 28.00881576538086 7.265292167663574
1.576019287109375 27.209041595458984 5.9787774085998535
1.9471015930175781 15.412174224853516 3.1943836212158203
5.805271148681641 29.384803771972656 7.143045425415039
0.0823974609375 26.38817596435547 10.091499328613281
1.7669677734375 27.12053680419922 6.548398017883301
1.5945281982421875 24.78247833251953 4.575131893157959
1.0373458862304688 30.350414276123047 6.290945053100586
0.7711524963378906 24.036937713623047 3.7137973308563232
9.028861999511719 31.786949157714844 7.5243988037109375
1.6475296020507812 26.823421478271484 6.082568645477295
1.4046249389648438 26.89525604248047 5.231496810913086
2.3105545043945312 15.770988464355469 6.37621545791626
4.337764739990234 31.76526641845703 7.081221580505371
0.2569122314453125 29.562076568603516 8.102102279663086
0.49303436279296875 17.95924949645996 7.6555705070495605
2.9151573181152344 29.209308624267578 6.608049392700195
0.15843963623046875 32.772708892822266 12.964085578918457
2.4664039611816406 15.307181358337402 6.087102890014648
0.16370391845703125 29.011783599853516 11.74069881439209
0.20288848876953125 31.040611267089844 9.02187728881836
1.5660934448242188 25.555160522460938 4.87246036529541
2.472057342529297 12.863299369812012 6.079966068267822
1.6717071533203125 15.039240837097168 7.10861349105835
2.2310714721679688 29.428329467773438 6.520961761474609
0.2216033935546875 24.872276306152344 7.681707382202148
4.546012878417969 32.32818603515625 6.8560075759887695
5.560138702392578 32.51228332519531 6.94976806640625
0.16096115112304688 29.99901580810547 12.62778377532959
2.4985618591308594 13.207869529724121 6.0266289710998535
0.237396240234375 28.54718017578125 9.555148124694824
2.2854843139648438 15.459403991699219 6.423525810241699
2.0620155334472656 21.800230026245117 6.453732013702393
7.276111602783203 33.46845245361328 7.315807819366455
0.18697357177734375 19.7476806640625 2.708977699279785
2.4396743774414062 20.702455520629883 5.37837028503418
0.7279090881347656 17.66790771484375 7.591028213500977
0.578369140625 21.7956485748291 7.621835231781006
0.16790008544921875 31.17957305908203 13.244421005249023
7.694499969482422 30.846630096435547 7.221667289733887
0.0860137939453125 26.55742645263672 10.239185333251953
0.13507461547851562 28.71249771118164 5.014340400695801
2.2029876708984375 21.35964584350586 6.250553131103516
2.8207855224609375 28.365493774414062 6.625307083129883
0.262939453125 29.362674713134766 7.797388076782227
0.9072418212890625 22.139202117919922 3.2818973064422607
1.644378662109375 26.765201568603516 6.19915771484375
8.94845962524414 33.50017547607422 7.314836502075195
0.9041366577148438 20.704484939575195 2.987844705581665
0.11848068237304688 34.0691032409668 15.625264167785645
0.0755157470703125 34.842323303222656 15.4940767288208
7.916553497314453 31.707508087158203 7.184837818145752
0.2009429931640625 30.7391357421875 11.734931945800781
0.344970703125 30.899887084960938 7.637509346008301
4.974510192871094 30.449798583984375 7.175895690917969
2.4907188415527344 12.531503677368164 3.9578583240509033
4.555011749267578 29.658958435058594 6.809287071228027
2.6496353149414062 15.34528923034668 4.623547554016113
2.6519012451171875 27.55181121826172 6.861289024353027
2.0824851989746094 22.069103240966797 6.378497123718262
0.17504119873046875 30.47093963623047 12.613357543945312
2.1047515869140625 14.3450288772583 3.3524820804595947
0.4271392822265625 20.197481155395508 2.7896454334259033
0.26270294189453125 28.37186050415039 8.541781425476074
2.0773162841796875 21.45794677734375 6.472134590148926
10.003545761108398 34.270713806152344 7.4782915115356445
1.3299903869628906 20.141395568847656 3.1295835971832275
7.3558807373046875 30.568649291992188 7.336116790771484
2.2666778564453125 20.903900146484375 4.388553142547607
2.2943954467773438 20.438514709472656 4.3361310958862305
6.248497009277344 32.24738693237305 6.997662544250488
2.625202178955078 15.83885383605957 4.484231472015381
8.061717987060547 31.802101135253906 7.201256275177002
0.1875762939453125 27.249252319335938 9.818521499633789
0.039180755615234375 33.825740814208984 7.297023773193359
0.6854476928710938 19.01032829284668 2.7012863159179688
2.2066116333007812 18.800228118896484 6.464114189147949
2.574077606201172 13.764718055725098 5.776007652282715
1.2437858581542969 16.312171936035156 7.386466979980469
0.1395416259765625 22.690837860107422 7.77336311340332
2.974170684814453 28.252784729003906 6.939821243286133
0.10717391967773438 33.27219009399414 15.956890106201172
2.51953125 16.644548416137695 5.926329612731934
3.8898086547851562 30.301029205322266 6.710921287536621
1.9459304809570312 23.993637084960938 4.9260172843933105
0.25240325927734375 31.278411865234375 7.663091659545898
0.16588973999023438 31.96780776977539 10.131204605102539
3.7027435302734375 32.36241149902344 6.917862892150879
0.21649932861328125 27.95738983154297 9.812320709228516
1.7803802490234375 14.11935806274414 7.01875638961792
0.06805801391601562 34.46663284301758 14.334501266479492
1.6577072143554688 21.34911346435547 3.5673365592956543
2.5038604736328125 19.394508361816406 4.740163803100586
0.34429931640625 21.611347198486328 7.6695404052734375
2.013866424560547 20.881895065307617 3.899632215499878
0.6492347717285156 13.138683319091797 2.388859510421753
9.141876220703125 33.86988830566406 7.359529972076416
0.017017364501953125 16.954469680786133 2.4047913551330566
9.800121307373047 34.160682678222656 7.446593284606934
0.38811492919921875 29.669761657714844 7.632524490356445
1.7492141723632812 18.99953269958496 7.013920783996582
5.481880187988281 29.302570343017578 7.140199661254883
0.6951370239257812 29.94896697998047 5.631715774536133
4.9425048828125 31.46356964111328 6.842532634735107
2.1536483764648438 23.241600036621094 5.689085483551025
0.1092071533203125 31.621562957763672 14.900997161865234
6.028095245361328 32.654361724853516 7.2365193367004395
0.6925315856933594 32.575050354003906 7.2106733322143555
5.451938629150391 29.576030731201172 7.172223091125488
0.8138504028320312 31.631595611572266 7.165553569793701
1.8946380615234375 14.858183860778809 3.116734743118286
0.17594146728515625 27.753211975097656 10.446887969970703
2.918872833251953 30.318359375 6.972805023193359
2.6896400451660156 14.13537311553955 4.927367210388184
2.5129928588867188 14.857152938842773 4.0768208503723145
2.5720977783203125 28.65723419189453 6.574324607849121
0.9020614624023438 29.717872619628906 5.741472244262695
2.185291290283203 22.963516235351562 5.68269157409668
8.415081024169922 33.400054931640625 7.262186050415039
8.771472930908203 31.322715759277344 7.403256416320801
1.2114715576171875 26.980327606201172 7.14987325668335
1.5249443054199219 19.603158950805664 3.192333459854126
0.158660888671875 31.5712890625 13.749795913696289
2.601470947265625 16.331026077270508 5.662217140197754
1.8880996704101562 31.75959014892578 6.615476608276367
9.095462799072266 31.66710662841797 7.3887224197387695
0.750732421875 28.202312469482422 5.056685924530029
1.7796783447265625 25.92235565185547 5.770054817199707
0.24507522583007812 29.925495147705078 7.9959306716918945
1.8020057678222656 16.606096267700195 7.002821922302246
0.5155181884765625 28.98265838623047 7.5949387550354
0.25304412841796875 29.351097106933594 8.747825622558594
2.2729949951171875 22.118511199951172 5.042367935180664
2.5404739379882812 17.949438095092773 5.792060375213623
0.19197845458984375 26.672801971435547 9.320127487182617
2.4895668029785156 19.772411346435547 5.498896598815918
1.84326171875 24.90673065185547 5.124482154846191
0.2201385498046875 18.70825958251953 2.580549955368042
0.17839813232421875 31.214569091796875 8.416508674621582
0.1544647216796875 32.36729431152344 14.200851440429688
1.96826171875 15.085798263549805 6.838913917541504
0.2682151794433594 29.052215576171875 7.862442970275879
0.17532730102539062 32.22300720214844 12.23293399810791
0.21084976196289062 28.938140869140625 10.644937515258789
0.135284423828125 27.867111206054688 11.107516288757324
0.6280860900878906 28.742385864257812 7.539721965789795
6.745059967041016 32.06982421875 7.349246025085449
1.9053955078125 30.852725982666016 6.520356178283691
2.6219253540039062 28.1661376953125 6.910644054412842
2.6000823974609375 30.967056274414062 6.592101097106934
6.2252655029296875 31.386207580566406 7.303013801574707
9.191184997558594 34.2569580078125 7.458865165710449
0.2572784423828125 27.92966079711914 8.630800247192383
0.25496673583984375 27.758628845214844 8.67415714263916
0.19018936157226562 32.36167907714844 6.184885501861572
0.20935821533203125 30.789897918701172 8.523350715637207
2.3159217834472656 14.988897323608398 3.6789941787719727
1.1508941650390625 15.650943756103516 2.6318509578704834
0.3402862548828125 21.03557586669922 2.8873934745788574
0.2393341064453125 27.28356170654297 8.924823760986328
0.6065826416015625 16.105192184448242 7.627392292022705
2.4449310302734375 27.896102905273438 6.594532489776611
0.6275291442871094 16.602909088134766 2.475060224533081
5.564750671386719 32.69801712036133 6.970290660858154
1.6507568359375 31.283546447753906 6.531912803649902
1.9907150268554688 24.49465560913086 5.4548420906066895
0.117218017578125 31.651844024658203 8.191115379333496
2.6761627197265625 17.036361694335938 5.07881498336792
0.258636474609375 34.21015930175781 7.10174560546875
2.6456336975097656 17.18350601196289 4.736798286437988
0.7585792541503906 32.36568069458008 7.058553218841553
0.34148406982421875 25.409709930419922 7.669767379760742
0.10999298095703125 29.625614166259766 13.054502487182617
2.344532012939453 18.921667098999023 6.198481559753418
1.4294319152832031 28.695877075195312 6.431436061859131
5.658027648925781 32.79176330566406 6.987263202667236
0.920806884765625 30.096553802490234 5.918556213378906
1.9850006103515625 28.61571502685547 6.877971172332764
4.320621490478516 29.88684844970703 6.770493507385254
5.6237640380859375 30.44854736328125 6.922082901000977
0.179290771484375 31.48633575439453 9.199409484863281
0.6878814697265625 28.943618774414062 5.273234844207764
2.1108551025390625 28.050186157226562 6.868790626525879
0.2217559814453125 27.681800842285156 9.491281509399414
0.6453895568847656 32.63214874267578 6.641323089599609
0.79742431640625 27.236770629882812 7.480262756347656
0.34619903564453125 22.89322280883789 3.313709020614624
1.9157981872558594 31.586483001708984 6.768813133239746
2.2897987365722656 30.69281768798828 6.549228191375732
0.2591438293457031 18.71550941467285 7.6781511306762695
7.628795623779297 31.310138702392578 7.418484687805176
2.2699203491210938 20.106212615966797 4.203433513641357
2.1153488159179688 14.06778335571289 3.356555938720703
0.2610626220703125 28.890892028808594 8.421426773071289
1.2918663024902344 12.951492309570312 2.6434521675109863
0.486328125 24.291667938232422 7.6375274658203125
3.705242156982422 28.7630615234375 6.732504844665527
1.2732467651367188 20.806503295898438 3.1907830238342285
1.7677879333496094 31.691062927246094 6.591841220855713
1.8685569763183594 18.994380950927734 3.399986505508423
4.267635345458984 30.248825073242188 7.108852386474609
0.2137298583984375 24.67221450805664 8.04149055480957
0.17655181884765625 32.08671569824219 12.775704383850098
2.6003799438476562 14.531656265258789 5.682277679443359
0.15208816528320312 32.87002182006836 12.661764144897461
0.9659385681152344 16.35295295715332 2.5689170360565186
0.12662506103515625 17.463394165039062 7.691218376159668
0.197723388671875 25.255409240722656 8.43883991241455
3.677379608154297 28.988750457763672 6.717410087585449
2.6614608764648438 15.682663917541504 5.298720359802246
8.135807037353516 31.11432647705078 7.420505523681641
2.675060272216797 16.49958038330078 4.975502014160156
1.0085792541503906 23.066871643066406 3.5803534984588623
0.11826324462890625 33.67096710205078 13.486429214477539
8.899532318115234 33.280731201171875 7.555751800537109
0.19293212890625 31.482601165771484 10.016950607299805
4.699802398681641 29.01221466064453 7.086490154266357
2.711811065673828 29.30139923095703 6.58176851272583
1.60284423828125 25.381378173828125 6.792820930480957
4.462013244628906 32.54352951049805 7.021788120269775
0.4757537841796875 31.261734008789062 5.942058563232422
6.350322723388672 31.95416259765625 7.001918792724609
1.7125701904296875 26.39626693725586 5.927160739898682
10.23204231262207 33.21110534667969 7.503966808319092
1.9981231689453125 21.43880271911621 4.0001983642578125
0.2335968017578125 29.401138305664062 10.01211166381836
1.7544517517089844 16.260093688964844 3.0451745986938477
0.10631561279296875 32.23139953613281 9.413654327392578
0.08551025390625 24.193801879882812 8.487875938415527
0.5877227783203125 17.512569427490234 2.4907214641571045
5.783851623535156 30.540225982666016 7.249303340911865
5.475395202636719 31.008594512939453 6.89457893371582
4.429103851318359 30.642684936523438 7.126892566680908
0.14733123779296875 32.70270538330078 11.699783325195312
0.160308837890625 30.499385833740234 12.997509956359863
0.10411453247070312 34.391353607177734 15.307451248168945
0.18837738037109375 28.00017547607422 10.457584381103516
2.2286529541015625 22.17987823486328 5.942212104797363
0.202301025390625 31.02581024169922 11.484209060668945
0.2492218017578125 28.14411163330078 9.012694358825684
2.102466583251953 29.392410278320312 6.505614757537842
0.17269134521484375 29.201831817626953 11.758447647094727
0.2470245361328125 26.669212341308594 7.678759574890137
0.19666290283203125 31.392780303955078 11.696854591369629
6.6609954833984375 31.2703857421875 7.340487480163574
0.0736541748046875 28.537052154541016 12.294563293457031
0.2220001220703125 24.546253204345703 3.7105326652526855
0.23017120361328125 29.61943817138672 10.207199096679688
1.0269508361816406 19.603490829467773 2.8946750164031982
3.0526809692382812 31.976669311523438 6.885800361633301
2.39892578125 29.68173599243164 6.927435398101807
5.261264801025391 30.88446807861328 7.208254814147949
2.4776611328125 28.669754028320312 6.923433303833008
3.9322586059570312 29.276660919189453 7.057925701141357
2.581867218017578 16.543127059936523 4.3711371421813965
1.2527885437011719 20.23584747314453 3.10131573677063
0.17346954345703125 15.210128784179688 7.686371803283691
4.47174072265625 31.001861572265625 6.784883499145508
1.6753921508789062 29.333694458007812 6.8564324378967285
1.6901931762695312 21.782703399658203 6.979376792907715
0.24109268188476562 29.619075775146484 9.432062149047852
1.8075103759765625 24.72954559326172 6.524998188018799
2.864147186279297 31.032669067382812 6.939736366271973
0.37314605712890625 28.813304901123047 7.642707824707031
1.8045234680175781 30.951908111572266 6.515556335449219
2.6969451904296875 13.924895286560059 4.9834513664245605
0.7957916259765625 31.013519287109375 7.290613174438477
6.956336975097656 30.75768280029297 7.100312232971191
0.15515518188476562 32.79475021362305 13.942083358764648
5.899406433105469 33.06968688964844 7.047671318054199
4.700420379638672 31.05734634399414 7.149360656738281
2.6903343200683594 13.182486534118652 4.887476921081543
0.603729248046875 25.543697357177734 4.105402946472168
2.6476593017578125 14.247303009033203 5.513211250305176
2.768707275390625 30.412677764892578 6.955632209777832
0.09291458129882812 33.828880310058594 13.18939208984375
5.593360900878906 32.25165557861328 6.939663410186768
1.9352836608886719 20.80387306213379 3.790454864501953
0.019222259521484375 18.883602142333984 2.5832223892211914
0.52606201171875 31.69500732421875 7.522344589233398
3.588085174560547 28.415691375732422 6.738177299499512
1.7539825439453125 27.905311584472656 6.836423873901367
0.9492034912109375 26.362918853759766 7.417163848876953
0.178619384765625 17.934551239013672 7.686131477355957
9.361930847167969 32.605491638183594 7.351834297180176
0.2918891906738281 14.915350914001465 7.674670219421387
0.6319503784179688 13.189552307128906 7.619293212890625
0.06390380859375 27.777877807617188 11.59328842163086
0.13460922241210938 18.467382431030273 7.690303325653076
5.335487365722656 30.73657989501953 6.882523059844971
0.0994720458984375 26.51360321044922 10.11452579498291
1.2170486450195312 28.530567169189453 5.687329292297363
7.118144989013672 32.327484130859375 7.384037971496582
1.2071914672851562 18.306270599365234 7.39860200881958
2.443431854248047 16.322933197021484 3.959970712661743
3.671825408935547 31.559249877929688 7.0112104415893555
5.512542724609375 30.097206115722656 7.210050106048584
0.0797119140625 27.349849700927734 11.069950103759766
0.19342041015625 25.35321807861328 8.520061492919922
0.2540931701660156 29.164749145507812 8.764347076416016
0.3031120300292969 13.442794799804688 2.3297460079193115
0.191802978515625 31.691421508789062 11.664409637451172
2.2082786560058594 22.214759826660156 4.816294193267822
1.39324951171875 24.587440490722656 4.266754150390625
1.7620086669921875 24.205467224121094 4.62340784072876
2.8906784057617188 32.025001525878906 6.70513391494751
1.2086334228515625 20.87277603149414 7.371006965637207
2.2172393798828125 16.00874900817871 3.5396664142608643
0.13354110717773438 23.96070098876953 3.556910276412964
1.814208984375 25.71847152709961 5.759947776794434
1.7029190063476562 25.969493865966797 5.408239364624023
0.14600372314453125 31.451461791992188 8.20005989074707
1.7860794067382812 28.650314331054688 6.4777655601501465
2.2862091064453125 16.411388397216797 6.419083595275879
0.8775520324707031 12.951581954956055 7.5447773933410645
3.152191162109375 31.483440399169922 6.95236873626709
0.27336883544921875 28.626461029052734 7.7139410972595215
2.2795791625976562 21.66509437561035 5.92894983291626
8.097862243652344 33.75055694580078 7.27870512008667
2.5369873046875 12.917336463928223 4.102965354919434
3.022846221923828 29.753860473632812 6.613295555114746
1.4824295043945312 14.707592010498047 7.258408546447754
2.41314697265625 31.93206787109375 6.7859320640563965
6.620639801025391 31.53567123413086 7.02708625793457
0.198089599609375 31.007144927978516 8.62339973449707
2.6665420532226562 16.37017822265625 4.879532814025879
1.521697998046875 26.967376708984375 5.5116682052612305
0.3706512451171875 26.713199615478516 4.412933349609375
0.17403030395507812 32.266441345214844 12.587133407592773
5.160919189453125 29.259422302246094 6.93446159362793
0.868682861328125 25.26700210571289 4.129253387451172
4.519683837890625 31.21613311767578 7.127933979034424
2.1934585571289062 29.331600189208984 6.9073405265808105
5.422416687011719 29.26360321044922 6.981895446777344
0.2587623596191406 28.939956665039062 8.55388069152832
0.9290580749511719 13.360638618469238 2.4737415313720703
1.1054840087890625 20.638160705566406 7.42851448059082
0.25533294677734375 19.867328643798828 2.7308425903320312
0.1534881591796875 32.934242248535156 13.113380432128906
1.0380783081054688 25.850215911865234 7.370118141174316
3.6509971618652344 30.283199310302734 6.685491561889648
0.5723152160644531 21.40964126586914 7.625561714172363
6.6562042236328125 32.176918029785156 7.038247585296631
2.016765594482422 16.479585647583008 6.77781867980957
2.6680908203125 15.542905807495117 4.827136993408203
1.82061767578125 24.073802947998047 6.5929412841796875
7.305095672607422 31.992961883544922 7.1036834716796875
2.4122314453125 16.296924591064453 6.186471462249756
1.9795875549316406 29.606979370117188 6.495038986206055
2.050262451171875 30.40129852294922 6.750699996948242
0.17572021484375 30.60287094116211 12.689667701721191
0.2060546875 30.809844970703125 8.399925231933594
0.6541671752929688 18.615819931030273 7.609737396240234
2.665660858154297 12.933563232421875 4.6368794441223145
2.1963653564453125 17.44145965576172 6.556538105010986
2.871509552001953 28.517986297607422 6.945594787597656
0.07698440551757812 33.825740814208984 7.430898666381836
