# .PCD v0.7 - Point Cloud Data file format
VERSION 0.7
FIELDS x y z
SIZE 4 4 4
TYPE F F F
COUNT 1 1 1
WIDTH 843
HEIGHT 1
VIEWPOINT 0 0 0 1 0 0 0
POINTS 843
DATA ascii
-2.5380935668945312 7.926443099975586 5.896308898925781
-2.6635513305664062 3.4357986450195312 4.615460395812988
-2.56781005859375 0.5412445068359375 5.798343658447266
-2.3780364990234375 2.0248870849609375 6.25585412979126
-1.8857803344726562 2.57881760597229 1.8785313367843628
-1.1255226135253906 -10.258816719055176 7.448355197906494
-2.4387130737304688 -9.588214874267578 3.860579490661621
-4.5417160987854 -0.9558258056640625 3.1909728050231934
-1.0511474609375 -3.0401406288146973 7.488110542297363
-0.2343902587890625 1.6787265539169312 1.8708429336547852
-5.146579742431641 2.8845596313476562 3.6752657890319824
-2.3532028198242188 -2.8737716674804688 6.302310943603516
-2.6525115966796875 -0.81829833984375 4.503332138061523
-1.2206459045410156 -7.0993757247924805 1.8785309791564941
-3.3651199340820312 -1.1783523559570312 2.9377543926239014
-4.079007148742676 2.1666107177734375 3.9301364421844482
-2.6507339477539062 8.669225692749023 5.5176167488098145
-1.7765235900878906 -4.3982086181640625 7.021528244018555
-0.054866790771484375 -7.358135223388672 7.697614669799805
-6.091361999511719 2.1250381469726562 4.23747444152832
-0.15038299560546875 8.907638549804688 2.3147077560424805
-6.3639116287231445 3.0671005249023438 3.137296676635742
-2.0469322204589844 9.617905616760254 3.20686674118042
-4.973309516906738 -5.824623107910156 4.245377540588379
-2.6998138427734375 -5.783424377441406 4.983750343322754
-0.8794593811035156 4.37778902053833 1.8785316944122314
-2.792163848876953 2.56451416015625 2.291006326675415
-4.539124011993408 1.4470062255859375 3.384122371673584
-2.428455352783203 -5.770477294921875 6.161532402038574
-4.9616007804870605 0.38135528564453125 4.360297679901123
-4.5579915046691895 -6.670921325683594 3.828801155090332
-2.6531028747558594 1.770660400390625 5.493565082550049
-1.85882568359375 -9.20261001586914 2.2492480278015137
-2.630279541015625 6.546878337860107 3.841217041015625
-2.690624237060547 3.34539794921875 4.8904128074646
-0.047771453857421875 -1.5117624998092651 1.8785309791564941
-2.6675567626953125 3.0306472778320312 5.346757411956787
-3.9519639015197754 -1.2872772216796875 4.401425361633301
-4.868531227111816 -1.9424896240234375 3.229459762573242
-2.47882080078125 9.66153335571289 3.935605049133301
-3.4493789672851562 -0.23114776611328125 4.243959426879883
-1.4816017150878906 4.260500907897949 7.258039474487305
-4.949371814727783 -1.3042831420898438 4.512241840362549
-2.052661895751953 -6.542308807373047 6.734943389892578
-0.035552978515625 -5.860872268676758 1.8785309791564941
-0.262054443359375 2.0694785118103027 1.8785314559936523
-0.9293136596679688 -4.337534427642822 7.52907133102417
2.8090972900390625 -6.157283782958984 2.9358534812927246
-2.6181716918945312 -8.156864166259766 2.694645404815674
-0.21696853637695312 -2.398622512817383 1.8785309791564941
-2.0709228515625 -9.14370059967041 6.712263107299805
-2.939830780029297 -1.177978515625 2.8088505268096924
-1.3954544067382812 -8.979168891906738 2.0709991455078125
-0.4304771423339844 -2.053424119949341 7.660629749298096
-2.574199676513672 -1.8231201171875 2.1764354705810547
-2.893360137939453 -5.986244201660156 2.9391205310821533
-2.605426788330078 7.283889293670654 3.4412331581115723
-1.4968681335449219 2.580331325531006 7.249879837036133
-1.9520645141601562 -4.028818130493164 6.85986852645874
-1.8458747863769531 8.36611270904541 2.623246431350708
-2.7820205688476562 -6.526798248291016 4.150385856628418
-4.253681659698486 -1.0224151611328125 3.1484694480895996
-2.38714599609375 1.3323593139648438 6.238811492919922
-2.674755096435547 7.583797931671143 4.729264736175537
-2.8762550354003906 3.7764663696289062 3.077641487121582
-2.668365478515625 -7.619808197021484 5.338555335998535
-2.069671630859375 -6.894695281982422 6.7138166427612305
-2.5717697143554688 -8.773513793945312 5.7852911949157715
-2.0301742553710938 -9.229564666748047 2.380634069442749
-1.5448036193847656 7.5559163093566895 2.382523775100708
-1.5415153503417969 2.1500210762023926 1.8785313367843628
-3.461273193359375 -3.6826400756835938 4.455978870391846
-5.754302024841309 1.078643798828125 4.376410961151123
-5.141802787780762 2.9579925537109375 3.2513046264648438
-2.741363525390625 5.610785484313965 3.55397367477417
-5.108773231506348 -0.0078125 3.0487847328186035
-0.5778312683105469 -4.596123218536377 7.635712146759033
-3.1653099060058594 -5.515083312988281 4.348358631134033
-1.3839607238769531 -8.230067253112793 7.310225486755371
-2.078716278076172 -6.794788360595703 1.9115678071975708
-3.0479469299316406 1.1881484985351562 3.054450511932373
-1.7874526977539062 9.493913650512695 2.9095826148986816
-1.9499588012695312 -2.019261598587036 1.8785309791564941
-5.134068489074707 -3.3909378051757812 3.2941508293151855
-2.163097381591797 3.87040114402771 6.597798824310303
-2.356822967529297 -5.184410095214844 6.295541763305664
-2.3822669982910156 2.0657501220703125 1.9861894845962524
-2.581035614013672 11.02026081085205 4.248173713684082
-1.6791267395019531 -5.615262985229492 1.8785309791564941
-0.5939102172851562 9.74522876739502 7.63083553314209
-1.21978759765625 4.193658828735352 1.878531813621521
-4.211236476898193 -0.31463623046875 3.1812117099761963
-5.3058319091796875 -0.388092041015625 3.366703510284424
-2.065387725830078 3.9289727210998535 1.8785316944122314
-0.18700790405273438 6.542912483215332 2.0844907760620117
-2.665416717529297 -0.395416259765625 4.365957260131836
-2.565570831298828 5.763891220092773 2.29814076423645
-1.5507965087890625 0.7814528346061707 7.206781387329102
-0.6158409118652344 -2.517280340194702 1.8785309791564941
-2.6513290405273438 1.16033935546875 5.511570930480957
-2.423908233642578 1.633026123046875 2.020305871963501
-2.5288467407226562 -6.191249847412109 5.926790714263916
-6.3871917724609375 0.2247467041015625 3.5881078243255615
-6.284412860870361 -1.7115402221679688 3.5113511085510254
-0.9037208557128906 -1.68767511844635 1.8785309791564941
-0.3651161193847656 -6.806458473205566 1.8785309791564941
-2.245555877685547 1.3641281127929688 6.495396614074707
-2.173736572265625 8.273557662963867 6.584585189819336
-1.8122100830078125 -8.731124877929688 6.992237567901611
-5.197637557983398 3.2459564208984375 3.878422260284424
-5.75189208984375 -1.583038330078125 4.603464126586914
-5.034946441650391 0.3856964111328125 3.195551872253418
-0.6918449401855469 1.5922658443450928 1.8785313367843628
-1.5971336364746094 7.083691120147705 2.2940943241119385
-0.747711181640625 -8.979125022888184 7.584169387817383
-2.594348907470703 -4.1287994384765625 2.23159122467041
-0.9703521728515625 10.506401062011719 7.5166215896606445
-6.337831497192383 2.1020584106445312 4.278796195983887
-1.6848106384277344 -2.761641025543213 7.0967936515808105
-6.130851745605469 2.8645477294921875 3.1712989807128906
-2.2902793884277344 1.11492919921875 6.420027732849121
-2.6729888916015625 2.7201309204101562 5.2916107177734375
-1.9407424926757812 -1.8420305252075195 6.873929023742676
0.3213958740234375 -4.817222595214844 7.671370506286621
-2.5002174377441406 -8.207145690917969 6.021170616149902
-3.0901107788085938 -0.10855865478515625 2.934300184249878
-2.571697235107422 7.211438179016113 3.912259101867676
-0.8070831298828125 -8.732177734375 7.566157817840576
-5.364461898803711 -2.3702621459960938 3.3338706493377686
-2.387096405029297 -5.529182434082031 6.23891019821167
-2.680004119873047 2.0741424560546875 5.220348834991455
-2.8619461059570312 -0.3750762939453125 2.6029419898986816
-2.6914100646972656 -2.1385726928710938 4.898388862609863
-5.374856472015381 -5.3128509521484375 4.380043029785156
-3.569774627685547 -0.04442596435546875 3.0845017433166504
-4.695641040802002 2.5495529174804688 3.0106163024902344
-2.5897750854492188 -3.1758575439453125 5.725926876068115
-4.56602668762207 0.9811477661132812 4.2295942306518555
-4.786532878875732 0.0980682373046875 4.373931884765625
-2.3510589599609375 -8.679931640625 2.453134775161743
-0.8494377136230469 2.0051047801971436 1.8785313367843628
-2.009063720703125 -2.1466445922851562 1.8785309791564941
-2.0043296813964844 -9.651272773742676 2.515535831451416
-2.1208648681640625 -8.99979019165039 6.650242805480957
-1.6948699951171875 -6.951542854309082 7.088541030883789
-0.0590667724609375 4.255100727081299 7.697201251983643
-2.8880271911621094 -7.671985626220703 3.7826693058013916
-2.6403465270996094 -2.4823455810546875 5.55921745300293
-2.223766326904297 -5.823463439941406 1.997672200202942
-4.797868728637695 -0.32009124755859375 3.2825379371643066
-6.134030342102051 -1.5200881958007812 3.478762149810791
-0.11892318725585938 10.036253929138184 7.691307544708252
-2.6857337951660156 -3.2678680419921875 2.3594894409179688
-2.6175689697265625 -4.979240417480469 5.634304046630859
-1.78985595703125 9.93002700805664 2.992332935333252
-1.0602226257324219 10.430917739868164 2.5196263790130615
-5.664746284484863 -4.430854797363281 3.4905600547790527
-2.6746177673339844 -3.6836929321289062 4.727861404418945
-2.6529006958007812 2.5614166259765625 4.507286071777344
-2.3798980712890625 -9.786087989807129 3.50744366645813
-2.666900634765625 0.18114471435546875 4.358157157897949
-1.8144683837890625 -9.6629638671875 6.990384578704834
-0.17848968505859375 -3.655104398727417 7.685441970825195
-3.3598289489746094 -7.329559326171875 3.8478803634643555
-5.410525798797607 1.4762802124023438 4.2790069580078125
-5.870569229125977 2.0481338500976562 3.4698843955993652
-2.076885223388672 7.025115013122559 2.3781800270080566
-1.658599853515625 -6.5621137619018555 7.118304252624512
-1.5792579650878906 6.827171802520752 7.183423042297363
-2.793689727783203 0.6419754028320312 2.39003324508667
-2.5245742797851562 -3.0793075561523438 5.940878391265869
-2.1922836303710938 -2.775299072265625 6.5615553855896
-2.228473663330078 -9.546744346618652 2.7606937885284424
-0.9975128173828125 4.906814098358154 7.508380889892578
-5.035798072814941 -2.0913238525390625 4.554164409637451
-1.5790824890136719 10.560523986816406 7.183567047119141
-2.6572189331054688 7.977264404296875 4.551173210144043
-4.36750602722168 -5.60528564453125 3.3082189559936523
-2.8085556030273438 -4.54669189453125 4.425486087799072
-1.5902748107910156 6.277973651885986 7.174380302429199
-0.8269386291503906 4.1240057945251465 1.878531813621521
-2.5837364196777344 1.0745468139648438 5.745838165283203
-0.9733200073242188 2.3512017726898193 7.515719890594482
-1.9540061950683594 9.139727592468262 6.857457160949707
-5.188296318054199 -4.177848815917969 4.554670810699463
-6.2065653800964355 -1.6449050903320312 4.645750999450684
-1.7891731262207031 -6.677035331726074 7.011144638061523
-1.8879165649414062 9.119029998779297 3.0728092193603516
-2.9824600219726562 -6.9466552734375 3.2143208980560303
-3.8070907592773438 -6.453285217285156 4.162588119506836
-5.3917155265808105 -5.982452392578125 4.086838722229004
-2.5549278259277344 6.140012264251709 2.398430347442627
-2.6897430419921875 -1.5316925048828125 5.121461868286133
-3.9232990741729736 3.1535110473632812 3.676792621612549
-1.5455589294433594 -7.19632625579834 7.211076259613037
-0.7602386474609375 -2.4188151359558105 7.580370903015137
-2.3450241088867188 -4.1197967529296875 6.3176164627075195
-2.528095245361328 9.279211044311523 5.929269313812256
-2.5881385803222656 -10.054841995239258 4.271584510803223
-4.172945022583008 -4.836456298828125 4.463218688964844
-2.5157089233398438 1.05230712890625 5.9701056480407715
-2.4229164123535156 5.304361820220947 2.0879876613616943
-1.238525390625 -4.5667338371276855 7.3879594802856445
-0.31320953369140625 -2.0974953174591064 7.672177314758301
-5.797757148742676 0.224700927734375 3.4859251976013184
6.9847612380981445 -4.734916687011719 3.6704108715057373
-3.5863685607910156 2.560333251953125 3.7760143280029297
-2.3893165588378906 -2.296417236328125 6.234755992889404
-2.0735435485839844 1.1359329223632812 1.8785312175750732
-2.2043380737304688 -4.578765869140625 6.546581745147705
-2.8306312561035156 -1.9242935180664062 2.619694709777832
-0.1096038818359375 -8.277524948120117 7.692224502563477
-3.2422561645507812 1.3274002075195312 3.1153368949890137
-0.12686920166015625 -10.386022567749023 7.690524578094482
-2.5682601928710938 -6.081123352050781 5.796863079071045
-1.39227294921875 -9.476542472839355 7.305783271789551
-3.626728057861328 2.5072250366210938 3.2935171127319336
-2.678913116455078 -1.7499847412109375 5.231428623199463
-1.5575180053710938 9.333257675170898 7.201262950897217
-5.289967060089111 -5.8287200927734375 3.3718268871307373
-1.6940116882324219 7.093692779541016 7.089245796203613
-2.3144493103027344 6.011687755584717 6.374810218811035
-4.431158542633057 2.185821533203125 3.9784717559814453
-1.9268608093261719 1.0791443586349487 6.89116907119751
-0.8733367919921875 -2.2248213291168213 7.546054840087891
-0.8340415954589844 1.9121661186218262 7.557977199554443
-2.6534690856933594 -9.617074966430664 4.513077735900879
-0.2523040771484375 -4.02003288269043 1.8785309791564941
-3.2586898803710938 -2.8623886108398438 4.4200263023376465
-2.6586685180664062 -9.05603313446045 5.437043190002441
-6.263066291809082 1.2214584350585938 4.428277492523193
-4.1606340408325195 -6.182441711425781 3.207446575164795
-2.677654266357422 7.479056358337402 5.244231700897217
-6.180377006530762 0.5459518432617188 3.5758042335510254
-0.7159080505371094 0.9550058245658875 7.593820095062256
-4.372002601623535 0.230010986328125 4.302525043487549
-1.8457412719726562 -10.417770385742188 2.699143171310425
-2.528106689453125 -9.604392051696777 3.9843761920928955
-4.150995254516602 -6.329254150390625 4.164161205291748
-0.3089752197265625 -1.1155247688293457 1.8785308599472046
-5.914213180541992 -5.3998260498046875 3.4841690063476562
-0.4641761779785156 -2.337249755859375 7.657312393188477
-2.0448837280273438 10.978109359741211 6.744600772857666
-4.743191242218018 2.370086669921875 3.9869039058685303
-2.8515853881835938 4.2305145263671875 2.3662307262420654
-0.4672393798828125 5.6265645027160645 7.657010555267334
-2.489368438720703 7.974754333496094 3.3113839626312256
-4.122523784637451 -0.4949951171875 3.155531406402588
-4.225372314453125 -4.244590759277344 3.141383647918701
-4.25806999206543 2.7565994262695312 3.219691753387451
-5.194770336151123 0.7922134399414062 3.229564905166626
-5.497170448303223 -5.703239440917969 3.4075820446014404
-1.3583564758300781 -2.2810733318328857 1.8785309791564941
-4.547391414642334 3.137603759765625 2.7849483489990234
-5.057468891143799 -6.5324554443359375 3.4534566402435303
-3.2583770751953125 -2.9769973754882812 2.884960651397705
-6.098789215087891 3.2015838623046875 3.0524699687957764
-3.418781280517578 -1.6802825927734375 2.9589662551879883
-0.3546104431152344 -3.1981654167175293 7.668099880218506
-0.46224212646484375 -7.064367771148682 7.657501697540283
-6.539098262786865 -5.059257507324219 3.5885586738586426
-1.2185516357421875 6.5097246170043945 2.1227550506591797
-1.9448127746582031 9.401440620422363 6.868875980377197
-3.6502113342285156 0.9103546142578125 4.115720748901367
-3.1268463134765625 -4.9028167724609375 2.8789443969726562
-2.134471893310547 4.980930328369141 6.633347034454346
-5.5884108543396 -3.2177963256835938 4.621243000030518
-2.4954566955566406 -8.129707336425781 2.389286518096924
-2.423858642578125 -8.553131103515625 6.170124530792236
-2.6892547607421875 3.6531944274902344 4.207480430603027
-6.173377990722656 -4.934944152832031 4.417047023773193
-2.9576568603515625 -3.010650634765625 4.400341987609863
-5.303162574768066 3.0481948852539062 2.9461989402770996
-1.9229583740234375 -5.217653751373291 6.8960161209106445
-2.6738357543945312 -6.9872589111328125 5.282999038696289
-2.2690200805664062 -7.968685150146484 6.459803104400635
-2.4202919006347656 -2.8733444213867188 6.176804542541504
-2.4004554748535156 0.9649581909179688 6.213918685913086
-1.1654434204101562 -10.300516128540039 2.2926273345947266
-1.0590133666992188 -4.2625837326049805 7.483905792236328
-2.4750022888183594 -1.5983123779296875 2.101814031600952
-1.4084968566894531 1.0888837575912476 1.8785310983657837
-2.0518646240234375 5.699839115142822 6.735930442810059
-2.6754608154296875 -6.756587982177734 4.134772777557373
-1.71514892578125 4.967562198638916 1.897824764251709
-0.6518936157226562 3.926945924758911 1.878531813621521
-5.535261154174805 -1.5684661865234375 3.3590307235717773
-1.1205253601074219 -10.1370267868042 2.25689959526062
-2.6964569091796875 1.6326446533203125 5.053251266479492
-6.213820934295654 3.066650390625 3.107597827911377
-0.72637939453125 -7.0117692947387695 7.590643882751465
-1.5643882751464844 -6.300447940826416 7.195625305175781
-2.6860618591308594 -0.25778961181640625 4.227563381195068
-2.6516189575195312 9.000062942504883 5.5086445808410645
-2.6777801513671875 3.8447418212890625 5.24293851852417
-2.6439781188964844 7.03257417678833 4.45567512512207
-2.0550193786621094 -7.624897003173828 1.9093821048736572
-2.1681556701660156 -5.35797119140625 1.9498335123062134
-0.3099327087402344 -5.4163665771484375 1.8785308599472046
-2.528827667236328 7.732349872589111 3.312638998031616
-1.6272315979003906 -2.596855640411377 1.8785309791564941
-1.5999794006347656 -2.9902613162994385 7.166415691375732
-1.2632484436035156 -3.16930890083313 1.8785309791564941
-5.4402756690979 -6.073875427246094 3.397601842880249
-3.655811309814453 3.014678955078125 3.6766324043273926
-1.4776382446289062 -5.3069539070129395 7.260156631469727
-3.7306976318359375 0.300079345703125 3.154630184173584
-2.9232406616210938 3.1427001953125 2.820307970046997
-0.6015663146972656 6.506683349609375 7.628512382507324
-5.902064800262451 -0.04219818115234375 3.490020513534546
-5.014103412628174 -1.2160110473632812 3.27023983001709
-1.6571731567382812 6.397442817687988 2.165586471557617
-1.861968994140625 -8.713479995727539 2.0835046768188477
-2.6434478759765625 -9.273049354553223 4.4539289474487305
-2.25726318359375 6.576648235321045 6.48085880279541
-0.2776908874511719 7.29038143157959 2.1765530109405518
-0.8715782165527344 -4.1221232414245605 7.5465898513793945
-2.493915557861328 -5.416389465332031 2.182854175567627
-3.5938758850097656 1.2435455322265625 4.062478065490723
-5.1310319900512695 -3.8121566772460938 4.573967456817627
-2.5333290100097656 8.891679763793945 5.91201114654541
-2.416034698486328 5.829494476318359 6.184771537780762
-0.013545989990234375 0.47896671295166016 7.701683521270752
-1.9181785583496094 -10.340298652648926 6.901947975158691
-1.00262451171875 -8.331483840942383 1.9421370029449463
-2.5741233825683594 -8.159435272216797 5.777525424957275
-1.3797683715820312 -9.623668670654297 7.312466621398926
-2.667705535888672 -10.31989860534668 4.657658100128174
-2.668476104736328 -5.983512878417969 5.337421894073486
-1.6915779113769531 -6.38252067565918 1.8785309791564941
-6.466594696044922 -5.584739685058594 3.6498818397521973
-1.5593948364257812 4.356302261352539 1.878531813621521
-1.3243789672851562 -6.926752090454102 7.342070579528809
-3.5310211181640625 1.85076904296875 3.9137344360351562
-5.413061141967773 -1.5441436767578125 3.3341727256774902
-2.5260047912597656 5.949256420135498 5.936161041259766
-4.067805290222168 -6.9615936279296875 3.786769151687622
-3.7824935913085938 -1.1208343505859375 3.0518553256988525
-4.691542148590088 1.3748550415039062 3.4025111198425293
-4.6197404861450195 0.06929779052734375 3.279397964477539
-1.1154518127441406 6.145027160644531 2.0686166286468506
-2.5231170654296875 8.536056518554688 4.057229995727539
-4.874597549438477 -3.0468597412109375 3.238370656967163
-1.4628143310546875 -3.1239163875579834 1.8785308599472046
-4.267182350158691 2.0693740844726562 3.1159191131591797
-1.41876220703125 -8.576946258544922 7.291626930236816
-1.2416038513183594 4.830209732055664 7.38631534576416
-2.6695022583007812 -7.532398223876953 4.01874303817749
-2.529644012451172 -7.752388000488281 2.2553300857543945
-1.8451194763183594 -10.545095443725586 2.759690761566162
-1.8780746459960938 4.148036479949951 6.93818473815918
-3.240711212158203 -1.0317306518554688 2.9109911918640137
-2.668621063232422 -0.9040908813476562 5.335977077484131
-2.7676010131835938 -4.8023223876953125 2.639481782913208
-4.974758625030518 0.9464263916015625 4.2906036376953125
-1.7484626770019531 0.19044697284698486 7.044557571411133
-2.6658477783203125 -8.260848999023438 3.686689853668213
-1.9232559204101562 9.046327590942383 2.8624486923217773
-0.479705810546875 -9.044706344604492 2.0215277671813965
-1.7366218566894531 10.699544906616211 7.0542755126953125
-2.644420623779297 6.175251483917236 4.208062648773193
-0.9904060363769531 8.917667388916016 2.4710564613342285
-1.3976669311523438 -6.1543288230896 7.302900314331055
-2.6810760498046875 -1.278900146484375 4.793453693389893
-0.35778045654296875 -6.965632438659668 7.667788028717041
-2.1435089111328125 -0.3653717041015625 1.8785309791564941
-1.505218505859375 9.862326622009277 7.244185924530029
-2.0886611938476562 8.648797988891602 2.844886302947998
-0.8372993469238281 10.36099624633789 7.5569891929626465
-6.3956756591796875 -3.93243408203125 4.608006000518799
-6.471703052520752 -3.8219223022460938 3.627011299133301
-2.680999755859375 6.983746528625488 5.2102556228637695
-4.499958515167236 -3.0431594848632812 4.530903339385986
-5.345661163330078 3.01275634765625 3.968172073364258
-1.0207672119140625 -9.002628326416016 7.501322269439697
-5.115842819213867 -2.303741455078125 3.2838029861450195
-1.1234359741210938 10.117963790893555 7.449473857879639
-2.5760765075683594 5.1912641525268555 4.231819152832031
-4.907803058624268 -3.5666580200195312 3.253737449645996
-2.701427459716797 -0.21918487548828125 5.00278902053833
-1.2769889831542969 10.800444602966309 2.6354990005493164
-2.6673202514648438 -9.494333267211914 5.349175930023193
-3.275615692138672 -4.185844421386719 2.895223617553711
-0.9351959228515625 -1.8662370443344116 1.8785309791564941
-2.5911331176757812 10.100957870483398 5.721456050872803
-2.655162811279297 -5.0486297607421875 5.472653388977051
-2.3917579650878906 10.696590423583984 6.230184555053711
-2.650928497314453 3.2865524291992188 2.129969358444214
-2.5840682983398438 -2.7207107543945312 5.744748592376709
-0.7872428894042969 3.9843666553497314 1.8785316944122314
-1.5856781005859375 8.193127632141113 7.178153038024902
-2.6901817321777344 6.346733093261719 4.88591194152832
-0.5640983581542969 2.161417007446289 7.639880180358887
-0.5282096862792969 -2.2753849029541016 1.8785309791564941
-0.5503044128417969 -7.247742176055908 1.8785310983657837
-2.0364761352539062 -5.551902770996094 6.755040168762207
-2.6989784240722656 -6.381660461425781 2.5709307193756104
-1.4405326843261719 -0.6960365772247314 7.279989242553711
-2.496654510498047 10.011979103088379 6.032922744750977
-4.484692573547363 -3.4754180908203125 3.1622884273529053
-1.6965065002441406 2.1209323406219482 7.087198257446289
-1.3731765747070312 4.200714111328125 7.315991401672363
-2.6819686889648438 9.732608795166016 5.2003889083862305
-1.57940673828125 0.9240480661392212 7.1833014488220215
-2.5196075439453125 -2.01922607421875 5.957252502441406
-2.6500511169433594 7.698091506958008 4.478374481201172
-4.618906021118164 3.282012939453125 3.7301344871520996
-2.6610679626464844 -0.7239608764648438 5.412671089172363
-3.3989181518554688 2.5982666015625 3.3801896572113037
-2.6747360229492188 1.5671768188476562 4.305352210998535
-3.3285789489746094 -0.7001571655273438 4.283575057983398
-0.9034423828125 -5.611292839050293 1.8785309791564941
-1.7155570983886719 10.416459083557129 7.071562767028809
-2.2398452758789062 -4.3662872314453125 6.502488136291504
-2.3841705322265625 1.5353851318359375 6.244378566741943
-1.9831504821777344 -3.0480575561523438 1.8785309791564941
-1.7378692626953125 -9.58456039428711 7.053249835968018
-1.0846977233886719 -0.31877872347831726 1.8785310983657837
-0.102020263671875 6.311610221862793 2.0534017086029053
-3.877472400665283 -6.651725769042969 3.1310317516326904
-3.060688018798828 -0.1453094482421875 4.1868577003479
-2.6636276245117188 -1.553680419921875 2.2353546619415283
-6.197593688964844 -0.9969940185546875 4.623764514923096
-4.95340633392334 0.348388671875 3.0582258701324463
-1.9861564636230469 -3.6051254272460938 1.8785309791564941
-2.0500946044921875 -1.2636871337890625 6.738131046295166
-1.94500732421875 -1.1585530042648315 1.8785309791564941
-2.508880615234375 10.61987590789795 4.010300159454346
-2.1629371643066406 -6.780509948730469 6.597996711730957
-2.3691062927246094 9.117328643798828 6.272562503814697
-2.6954345703125 -9.60039234161377 4.939269065856934
-5.231389045715332 0.46056365966796875 3.230501890182495
-2.696086883544922 -5.416755676269531 4.945883750915527
-6.183740615844727 -4.556221008300781 4.510014057159424
-2.432415008544922 2.35809326171875 2.018889904022217
-0.9659843444824219 1.7847223281860352 1.8785314559936523
-2.1029815673828125 0.655120849609375 6.672451019287109
-2.6977996826171875 8.924718856811523 5.03962516784668
-2.616657257080078 -2.1394882202148438 5.637308597564697
-2.6981582641601562 9.598268508911133 5.036005973815918
-4.921152591705322 0.6552047729492188 2.95082426071167
-4.483428478240967 1.069671630859375 4.206534385681152
-2.230335235595703 4.046851634979248 1.8785316944122314
-5.132190704345703 3.2357559204101562 2.994622230529785
-2.675884246826172 1.2242660522460938 5.262195110321045
-2.2617416381835938 9.38974666595459 6.473419189453125
-1.3940582275390625 1.6482785940170288 7.304828643798828
-2.525249481201172 -6.830768585205078 5.938645362854004
-2.8461151123046875 1.0276031494140625 3.984530448913574
-1.5384445190429688 11.003013610839844 2.7860002517700195
-2.6694183349609375 -4.732658386230469 5.327875137329102
-2.3673934936523438 -3.4979782104492188 6.275770664215088
-2.6697235107421875 -7.950984954833984 3.864096164703369
-0.5824737548828125 2.0217223167419434 7.634305477142334
-2.4569969177246094 -6.721332550048828 2.179657220840454
-3.4338531494140625 1.9688796997070312 3.9116384983062744
-1.5403594970703125 -8.983359336853027 2.071702003479004
-2.658550262451172 3.472900390625 5.438224792480469
-4.647645473480225 0.961029052734375 3.3583223819732666
-0.3970832824707031 -1.7017031908035278 7.663918495178223
-0.34836578369140625 1.8067984580993652 7.668715476989746
-5.08109188079834 -5.242347717285156 4.406233787536621
-5.32218599319458 0.0590972900390625 4.446031093597412
-0.65472412109375 -1.4700613021850586 7.612382888793945
-6.425483226776123 -5.4084625244140625 4.055515289306641
-2.6532249450683594 -7.492916107177734 4.510581970214844
-1.8746833801269531 10.577676773071289 3.06194806098938
-1.9603424072265625 -3.2169137001037598 6.849587440490723
-2.6874542236328125 4.9557013511657715 4.8582258224487305
-0.7240371704101562 -5.4198994636535645 7.591353893280029
-3.309589385986328 2.6719818115234375 3.7128584384918213
-0.5937385559082031 9.044181823730469 2.372025966644287
-3.79803466796875 2.609283447265625 3.244953155517578
-3.828946352005005 -1.0951919555664062 2.684544086456299
-2.42547607421875 -10.473222732543945 3.835820198059082
-0.3521461486816406 -4.1461029052734375 7.6683430671691895
-1.1093826293945312 1.0189660787582397 1.8785312175750732
-1.7402420043945312 -3.0607268810272217 1.8785309791564941
-4.980864524841309 -2.7758407592773438 4.566338539123535
-5.320995807647705 2.1984710693359375 3.2777936458587646
-6.351737976074219 -4.7420654296875 3.6080100536346436
-5.959174156188965 -2.0381927490234375 4.634393692016602
-2.810272216796875 4.133033752441406 3.4036240577697754
-0.4600791931152344 -2.0919549465179443 1.8785309791564941
-5.467351913452148 1.9339370727539062 4.183501720428467
-1.0587425231933594 -2.798426866531372 1.8785309791564941
-2.2209625244140625 -4.201026916503906 6.525936126708984
-2.1381263732910156 -5.136878967285156 6.628808498382568
-2.6300697326660156 -7.048912048339844 2.4488487243652344
-1.1483497619628906 3.7924437522888184 7.436156749725342
-0.40070343017578125 3.5823817253112793 7.663561820983887
-3.871861457824707 1.2831878662109375 3.162539482116699
-5.755149841308594 -4.413322448730469 4.543316841125488
-2.544994354248047 10.079216003417969 5.873556613922119
2.3850784301757812 -1.2473678588867188 6.242684841156006
-2.5636062622070312 1.3527450561523438 5.812205791473389
-2.0949058532714844 6.202826023101807 6.682484149932861
-1.7108268737792969 -3.8252248764038086 7.075445175170898
-2.8602981567382812 -6.958213806152344 4.040768623352051
-4.247920513153076 -1.1680450439453125 3.1260180473327637
-4.027237415313721 -6.504302978515625 3.1620304584503174
-2.4879188537597656 -5.7610015869140625 2.184683322906494
-1.3940505981445312 -10.49328327178955 7.3048319816589355
-0.4326896667480469 7.6453094482421875 2.3425049781799316
-2.939434051513672 -0.259918212890625 2.885784149169922
-4.22407865524292 -2.278656005859375 4.487159729003906
-1.7674942016601562 2.503681182861328 1.8785314559936523
-2.5299110412597656 -6.312934875488281 5.923285007476807
-2.492706298828125 2.0611038208007812 2.0648865699768066
-4.637657642364502 1.5319595336914062 4.141900062561035
-6.401851177215576 -0.06589508056640625 4.5769524574279785
-2.972911834716797 -1.41680908203125 4.306324481964111
-0.8659896850585938 1.5240460634231567 7.548285484313965
-1.8944625854492188 6.80704402923584 2.242288827896118
-2.6984291076660156 8.175581932067871 4.969674110412598
-5.087545394897461 1.1262054443359375 4.2822136878967285
-0.5459671020507812 -1.1860510110855103 1.8785309791564941
-6.299461841583252 2.3582229614257812 4.2204132080078125
-2.3574295043945312 -5.9262237548828125 2.0946803092956543
-0.6879386901855469 -7.417375087738037 7.6023054122924805
-1.665740966796875 -8.780651092529297 2.0377018451690674
-2.4341163635253906 -7.794548034667969 6.150941848754883
-1.3480682373046875 -7.118813514709473 1.8785309791564941
-1.4011039733886719 -0.00508915027603507 7.301064968109131
-2.8339996337890625 -1.8108673095703125 4.329860687255859
-2.5618362426757812 -8.276725769042969 2.6473159790039062
-0.3792152404785156 -0.7444934248924255 1.8785309791564941
-0.7245826721191406 2.6157004833221436 7.591187953948975
-2.6553611755371094 8.587766647338867 4.53227424621582
-5.198123455047607 0.9349899291992188 4.320312023162842
-2.8492393493652344 -7.912544250488281 3.711977958679199
-2.1968536376953125 -4.2329559326171875 1.9503605365753174
-3.0489501953125 2.0979232788085938 3.805920124053955
-2.9421310424804688 5.096583843231201 2.7726268768310547
-3.3564453125 -6.013008117675781 3.0796170234680176
-5.816483020782471 -4.753288269042969 4.481879711151123
-0.5222816467285156 -10.112540245056152 2.1640515327453613
-2.1007614135742188 -7.83221435546875 6.6752095222473145
-5.570164203643799 -1.8735427856445312 3.3698184490203857
-1.564117431640625 8.035764694213867 7.1958465576171875
-1.55059814453125 -1.529434084892273 7.206943511962891
-2.411815643310547 2.5149459838867188 6.192663192749023
-2.5726051330566406 7.667450428009033 5.782536506652832
-0.5819244384765625 2.835251808166504 1.878531575202942
-3.740863800048828 -0.0447998046875 4.257977485656738
-2.6577072143554688 -8.600177764892578 5.44678258895874
-0.025569915771484375 -1.4880849123001099 7.700500011444092
-0.3502464294433594 1.7893565893173218 1.8785313367843628
-2.178863525390625 3.1915359497070312 1.8785314559936523
-4.392399311065674 -1.1119461059570312 3.1673388481140137
-2.4686737060546875 10.131771087646484 3.9166259765625
-1.9280281066894531 5.00212287902832 6.889718055725098
-3.6943893432617188 -4.555213928222656 4.464779853820801
-2.5130081176757812 0.5206832885742188 5.979004859924316
-2.682666778564453 -6.043529510498047 4.192201614379883
-3.402782440185547 -3.752044677734375 2.941751480102539
-1.3698310852050781 -10.1488618850708 7.317777633666992
-4.914577960968018 -0.134246826171875 3.3135926723480225
-3.7178993225097656 2.9223861694335938 2.689420223236084
-2.78155517578125 5.551794052124023 2.5668082237243652
-5.610959529876709 0.019012451171875 3.4423933029174805
-0.3160820007324219 -6.311861038208008 7.67189359664917
-2.8224220275878906 3.7300567626953125 2.3060855865478516
-0.7478179931640625 -2.5581750869750977 7.584137916564941
-0.6084823608398438 10.075130462646484 2.376498222351074
-2.6609344482421875 -3.0539321899414062 2.28922700881958
2.0837020874023438 -10.327496528625488 2.970759868621826
-2.4597206115722656 8.807893753051758 3.8998794555664062
-0.5906219482421875 11.08321475982666 2.371079921722412
-1.9966201782226562 1.0240020751953125 6.804538249969482
-5.3332366943359375 1.3083267211914062 3.5002665519714355
-3.6695632934570312 0.20453643798828125 4.214639663696289
-3.576305389404297 -5.574089050292969 3.0975940227508545
-5.78832483291626 2.9566879272460938 3.0665388107299805
-2.0240631103515625 -1.3904800415039062 6.770458221435547
-6.412452697753906 -5.605049133300781 3.8989906311035156
-4.268389701843262 -2.5066070556640625 4.497767448425293
-2.758880615234375 -4.160736083984375 4.418903350830078
-1.3405799865722656 10.83302116394043 7.333413600921631
-3.9422149658203125 2.2590484619140625 3.8908138275146484
-3.9797720909118652 -4.103179931640625 4.497621059417725
-1.5613784790039062 -0.25890788435935974 7.198097229003906
-5.194769859313965 0.84783935546875 3.01513934135437
-2.697601318359375 -8.770744323730469 4.961219310760498
-1.6667633056640625 0.8560689687728882 1.8785310983657837
-3.5214462280273438 -2.3134841918945312 2.96297025680542
3.119922637939453 -6.929107666015625 3.217564582824707
-2.6066932678222656 10.126483917236328 4.332760810852051
-0.5514869689941406 8.073579788208008 2.277439594268799
-2.6955032348632812 -10.001127243041992 5.062944412231445
-6.047178268432617 -0.8101959228515625 3.473703384399414
-1.6846122741699219 7.954161167144775 7.096959590911865
-2.6927566528320312 -3.9091720581054688 4.91208553314209
-0.9720458984375 -9.19487476348877 2.0520126819610596
-1.6350212097167969 -4.755775451660156 7.137656211853027
-2.6795387268066406 9.449426651000977 4.777817249298096
-0.8217506408691406 1.042795181274414 7.561707496643066
-4.008519649505615 2.8831329345703125 3.0621187686920166
-2.696025848388672 -3.5687637329101562 5.057636260986328
-2.698009490966797 1.0153579711914062 5.037490367889404
-3.222393035888672 1.4665985107421875 3.1407012939453125
-4.161055564880371 -5.0301513671875 4.442144393920898
-0.8186111450195312 -2.8491227626800537 1.8785309791564941
-4.204654216766357 -1.5806655883789062 4.452602386474609
-2.5579833984375 -4.015769958496094 2.2036921977996826
-0.70037841796875 -9.826401710510254 7.598531723022461
-1.6067924499511719 -7.517743110656738 7.160825252532959
-2.8908615112304688 -2.8480072021484375 4.390989780426025
-1.227752685546875 -9.995199203491211 2.2414169311523438
-0.1920013427734375 -6.347792625427246 7.684111595153809
-1.6959991455078125 -10.360462188720703 7.087612152099609
-4.967152118682861 2.6357803344726562 3.030442714691162
-2.8663902282714844 -0.941497802734375 2.6461539268493652
-1.5747413635253906 9.12470531463623 7.18712854385376
-2.3164024353027344 5.611453533172607 2.1148059368133545
-2.6610641479492188 10.31909465789795 5.412693023681641
-2.68475341796875 -0.411224365234375 4.235520362854004
-2.3944931030273438 7.3826494216918945 2.7167248725891113
-2.6676292419433594 3.9082374572753906 5.3460516929626465
-2.148895263671875 9.393138885498047 3.277614116668701
-2.754852294921875 -3.2767791748046875 2.7261576652526855
-0.8121109008789062 -0.41129186749458313 7.564631938934326
-2.6215362548828125 9.627644538879395 5.621223449707031
-3.7633285522460938 -5.663848876953125 4.360581398010254
-5.423635482788086 -4.1720428466796875 4.560764789581299
-1.6993446350097656 5.288904190063477 7.084867477416992
-4.05235481262207 -7.211158752441406 3.504908800125122
-0.2521247863769531 -6.752382278442383 1.8785309791564941
-2.881305694580078 5.445450305938721 2.775855302810669
-1.9591026306152344 -5.075185775756836 6.85113000869751
-3.89974308013916 -6.90704345703125 3.8770318031311035
-3.3759002685546875 -6.7939300537109375 4.095702648162842
-6.415657043457031 2.584197998046875 4.198632717132568
-1.1600914001464844 9.591793060302734 7.429882526397705
-4.810596466064453 -1.71527099609375 3.2149837017059326
-2.5373764038085938 8.599344253540039 5.898674964904785
-4.1818695068359375 -7.1307830810546875 3.502824544906616
-3.2511634826660156 -0.0064239501953125 2.990753412246704
-2.571552276611328 6.857746601104736 2.7847373485565186
-2.2449264526367188 -9.370664596557617 6.496179580688477
-2.696826934814453 -10.201053619384766 5.049496173858643
-3.6642417907714844 2.4020843505859375 3.388650894165039
-2.6534347534179688 11.039669036865234 4.512720584869385
-6.073657989501953 -0.763946533203125 4.593832969665527
-2.71588134765625 6.590229034423828 3.3583054542541504
-5.8770341873168945 -4.8751678466796875 4.457596778869629
-2.1724472045898438 -7.734592437744141 1.9949493408203125
-3.4894027709960938 -3.9989471435546875 2.967700719833374
-2.2724647521972656 -5.103996276855469 6.453355312347412
-3.005157470703125 -0.36319732666015625 2.8895230293273926
-0.3578453063964844 0.007992732338607311 1.8785309791564941
-2.5003738403320312 7.72977352142334 3.9822585582733154
-1.8455696105957031 6.927933692932129 2.2649266719818115
-3.7287521362304688 -1.5173492431640625 3.0286705493927
-2.4429893493652344 1.617279052734375 6.134343147277832
-0.34679412841796875 -5.81646203994751 7.668869972229004
-4.521904468536377 0.185272216796875 3.2710728645324707
-2.6909255981445312 -2.8839340209960938 4.893486976623535
-4.251716613769531 -4.375953674316406 4.503232479095459
-2.9082603454589844 -2.9589996337890625 2.756911277770996
-5.341788291931152 -3.7991790771484375 4.586674213409424
-1.7014846801757812 -4.698286056518555 1.8785308599472046
-2.5533447265625 -4.523963928222656 5.8460283279418945
-4.572099685668945 -0.6330642700195312 4.416948318481445
-1.9717826843261719 -3.3986434936523438 6.835379123687744
-0.24096298217773438 -5.621561050415039 1.8785309791564941
-2.9932899475097656 2.960693359375 3.5904617309570312
-0.564361572265625 -7.268555641174316 7.639799118041992
-1.0764694213867188 0.6106866002082825 7.474576473236084
-4.253795146942139 -5.649787902832031 3.2786881923675537
-2.6634178161621094 5.261112689971924 4.347708702087402
-2.686450958251953 4.0073394775390625 4.848029136657715
-3.845726251602173 -1.3657760620117188 4.396051406860352
-6.303511619567871 1.8903045654296875 4.317253112792969
-5.718130111694336 0.7537994384765625 4.4124345779418945
-1.1720771789550781 -1.5435264110565186 1.8785309791564941
-0.7147369384765625 -1.991756558418274 1.8785310983657837
-2.6900901794433594 0.28578948974609375 5.117925643920898
-2.52838134765625 7.22003173828125 5.928318500518799
-2.372913360595703 -1.9003829956054688 2.034458875656128
-2.6877517700195312 3.1137008666992188 4.861232280731201
-1.057647705078125 -3.2245452404022217 1.8785309791564941
-4.218863487243652 -6.538665771484375 4.079730987548828
-0.9572868347167969 6.140108585357666 2.0678865909576416
-0.3958930969238281 3.64389705657959 1.8785316944122314
-3.7911529541015625 1.1214599609375 3.2359724044799805
-2.542327880859375 4.144359588623047 2.0482265949249268
-2.2012672424316406 3.4118728637695312 6.550398826599121
-2.2516937255859375 10.354143142700195 6.487777233123779
-2.650157928466797 4.392387390136719 4.479435920715332
-4.273088455200195 -1.9272384643554688 3.1094279289245605
-2.6882400512695312 -6.492900848388672 4.866214275360107
-2.9095001220703125 -2.1682357788085938 2.7532999515533447
-5.804637908935547 0.38224029541015625 4.469143867492676
-3.020618438720703 -7.89080810546875 3.6206178665161133
-1.1765518188476562 -4.679290771484375 1.8785309791564941
-0.2916069030761719 1.0311442613601685 7.674304485321045
-2.292102813720703 3.1619644165039062 1.910679578781128
-1.816314697265625 6.88386344909668 6.988869667053223
-1.571807861328125 6.89499568939209 2.258758783340454
-1.9850730895996094 -2.063873291015625 6.818879127502441
-5.698707580566406 -3.2213897705078125 3.410189628601074
-2.6520919799804688 6.161982536315918 4.064607620239258
-0.07410812377929688 -4.183210372924805 1.8785309791564941
-3.5013504028320312 -4.28271484375 4.464018821716309
-3.4393539428710938 -0.03177642822265625 4.2153000831604
-1.2929916381835938 -5.246901512145996 7.358848571777344
-2.666400909423828 -1.1970901489257812 4.354841232299805
-4.457982540130615 -2.0828933715820312 4.5022292137146
-3.0646743774414062 0.2143707275390625 2.972020149230957
-4.710558891296387 -3.11669921875 4.550342559814453
-6.517242431640625 2.9969329833984375 3.519200325012207
-2.505054473876953 -5.5838775634765625 6.005225658416748
-1.2863960266113281 11.052229881286621 2.6405296325683594
-2.6172218322753906 5.383580684661865 5.635450839996338
-3.035816192626953 -4.9644927978515625 4.416947364807129
-4.852254390716553 -4.351448059082031 4.529417514801025
-5.862746238708496 -5.938896179199219 3.8549718856811523
-2.6471214294433594 -6.354011535644531 5.536879062652588
-5.114584922790527 -1.8525848388671875 3.277893304824829
-0.64501953125 -1.7847657203674316 1.8785309791564941
-2.5562400817871094 8.611871719360352 4.166430950164795
-4.414918899536133 2.2995071411132812 3.053982734680176
-2.6642494201660156 9.141841888427734 4.622560977935791
2.4673309326171875 7.607793807983398 6.088808059692383
-2.5812950134277344 6.353304862976074 5.753884792327881
-2.68072509765625 4.155681610107422 2.1258583068847656
-2.7115745544433594 -2.615966796875 2.3819806575775146
-3.4539222717285156 2.529815673828125 3.7106122970581055
-4.11511754989624 -3.4540481567382812 3.0898871421813965
-3.7763900756835938 -3.9668350219726562 4.488731384277344
-2.664745330810547 -1.2962875366210938 4.627591133117676
-6.407425880432129 3.0287246704101562 4.130947113037109
-4.6981000900268555 -6.2627716064453125 4.059746265411377
-2.661212921142578 1.9855117797851562 4.591728210449219
-2.1173629760742188 -3.2553863525390625 6.654593467712402
-2.6538734436035156 -4.3125762939453125 5.485754489898682
-4.748916149139404 -0.1564483642578125 3.284984827041626
-2.666790008544922 3.7843971252441406 5.354561805725098
-1.8144721984863281 0.5447373390197754 6.990384101867676
-1.584381103515625 -4.224417686462402 1.8785309791564941
-2.7163047790527344 -7.261447906494141 2.7849833965301514
-0.3050956726074219 1.6692934036254883 7.672975540161133
-3.6648902893066406 -5.433967590332031 3.1055288314819336
-2.4991226196289062 -0.738616943359375 6.024782657623291
-0.9315528869628906 9.804973602294922 2.474498987197876
-2.777080535888672 -5.209510803222656 2.783135414123535
-4.379378795623779 -0.936798095703125 3.1750071048736572
-1.2447013854980469 9.070099830627441 7.384657859802246
-2.7698822021484375 5.279238700866699 3.5183331966400146
-5.194769859313965 0.5575103759765625 3.1050658226013184
-6.28068208694458 -0.7044677734375 3.5205767154693604
-1.8282279968261719 -10.02368450164795 2.5125017166137695
-0.055324554443359375 3.386587142944336 1.8785316944122314
-1.2834053039550781 10.986152648925781 7.363971710205078
-5.400854110717773 2.6516952514648438 3.6732330322265625
-1.6504440307617188 2.7345175743103027 1.8785314559936523
-4.95404577255249 -6.269447326660156 3.9739933013916016
-2.6844558715820312 2.5845947265625 4.827774524688721
-4.179161071777344 1.254364013671875 4.142186164855957
-6.334297180175781 3.1688232421875 3.3541436195373535
-2.456329345703125 10.297721862792969 6.109389305114746
-1.3539924621582031 -7.313764572143555 7.3262434005737305
-2.9162979125976562 1.9539108276367188 3.8190269470214844
-0.7065887451171875 -8.643753051757812 1.9818767309188843
-4.211899757385254 2.8983383178710938 3.5529253482818604
-2.6758384704589844 -4.145576477050781 4.7402567863464355
-3.4268112182617188 -0.36418914794921875 3.017275094985962
-2.373188018798828 4.378818035125732 6.264927864074707
-2.116405487060547 -3.8964385986328125 1.8871121406555176
-0.5113449096679688 -6.6007080078125 1.8785309791564941
-2.550220489501953 0.38903045654296875 5.856324672698975
-1.2318801879882812 -1.3407212495803833 7.391511917114258
2.15753173828125 -6.400672912597656 1.9607208967208862
-2.0461883544921875 7.3601579666137695 6.742979049682617
-5.278132438659668 -2.79522705078125 3.317234516143799
-1.2825546264648438 1.6820024251937866 1.8785313367843628
-2.6740455627441406 0.29846954345703125 5.280858039855957
-3.125293731689453 1.1457138061523438 4.007104873657227
-1.3726997375488281 -4.79506778717041 7.316246032714844
-2.4315147399902344 -9.964384078979492 3.773420810699463
-4.1812639236450195 -4.257537841796875 4.503449440002441
-2.238391876220703 8.73484992980957 3.11018967628479
-2.7174644470214844 0.0631256103515625 2.2448782920837402
-4.984013080596924 -0.0020599365234375 4.411513328552246
-1.6129531860351562 -3.071772813796997 1.8785309791564941
-2.4085006713867188 8.392763137817383 3.270786762237549
-1.7454833984375 -1.5891165733337402 7.047001361846924
-2.6699905395507812 5.844320297241211 4.251315593719482
-2.6180191040039062 5.870263576507568 2.3640944957733154
-4.601583480834961 0.5074920654296875 3.306816339492798
-4.731328964233398 2.9451675415039062 3.882781982421875
-1.4650840759277344 3.994103193283081 7.266867637634277
-2.3449859619140625 -4.329864501953125 6.31768798828125
-1.9513282775878906 6.35432243347168 6.860784530639648
-2.8632583618164062 0.6884841918945312 2.9998302459716797
-2.705780029296875 -5.4586181640625 2.5332822799682617
-0.4863624572753906 -3.3515567779541016 7.655127048492432
-1.5924568176269531 -4.906649589538574 7.172589302062988
-0.6194572448730469 2.007274627685547 1.8785314559936523
-0.8285255432128906 10.549217224121094 7.559652328491211
-1.4051971435546875 -8.088322639465332 7.298874855041504
-2.6564559936523438 1.4377365112304688 4.428580284118652
-2.521533966064453 9.580710411071777 5.95089864730835
-2.2763137817382812 4.15509033203125 6.446158409118652
-6.310174465179443 0.9779434204101562 3.633305311203003
-5.923811912536621 -2.2752151489257812 3.4433507919311523
-2.87469482421875 2.6527175903320312 2.49231219291687
-5.4392852783203125 3.3284835815429688 3.8327150344848633
-1.5811767578125 9.458874702453613 2.7778120040893555
-5.817935466766357 -3.2763442993164062 3.439897060394287
-2.659992218017578 -7.455024719238281 4.318240642547607
-3.9622676372528076 3.0326614379882812 3.7249956130981445
-1.6743850708007812 7.3756513595581055 2.348767042160034
-2.6782913208007812 0.8576202392578125 5.237773418426514
-2.159099578857422 1.9130172729492188 6.602764129638672
-0.11469268798828125 -0.4668944478034973 7.691723823547363
-2.9401473999023438 3.1949310302734375 3.3754305839538574
-2.5167236328125 0.793182373046875 5.966751575469971
-3.4835548400878906 0.25188446044921875 3.0804991722106934
-2.6936912536621094 -2.7877044677734375 5.081336975097656
-2.6725082397460938 4.1712799072265625 4.706439971923828
-3.7532081604003906 1.9259262084960938 3.931264877319336
-2.5297393798828125 10.324604034423828 4.079062461853027
-2.2620849609375 -1.4348297119140625 1.9472920894622803
-1.9501800537109375 5.460679054260254 1.9901666641235352
-1.8880996704101562 1.2685346603393555 1.8785312175750732
-0.4853057861328125 0.0070889475755393505 7.655231475830078
-0.6138381958007812 -0.9085055589675903 1.8785309791564941
-1.5744781494140625 8.343108177185059 2.5299341678619385
-2.1749229431152344 5.658365249633789 6.5831122398376465
-2.6922225952148438 5.83656120300293 5.0962605476379395
-0.2303009033203125 -0.5196797251701355 7.680339813232422
-3.7912979125976562 -2.4118423461914062 4.452355861663818
-2.5975189208984375 -9.600166320800781 5.700403690338135
-3.9392402172088623 -5.4425811767578125 4.392887115478516
-0.6216926574707031 -0.7446582317352295 1.8785309791564941
-6.429691314697266 1.0529022216796875 4.470474720001221
-6.070893287658691 1.5859527587890625 4.355882167816162
-1.9133377075195312 -6.419507026672363 6.907960891723633
-5.442010402679443 0.041473388671875 4.460832118988037
-2.6748390197753906 -5.946746826171875 2.4893958568573
0.9319229125976562 5.967146873474121 2.0422110557556152
