# .PCD v0.7 - Point Cloud Data file format
VERSION 0.7
FIELDS x y z
SIZE 4 4 4
TYPE F F F
COUNT 1 1 1
WIDTH 831
HEIGHT 1
VIEWPOINT 0 0 0 1 0 0 0
POINTS 831
DATA ascii
-2.3947525024414062 -15.779108047485352 3.77834415435791
-1.943033218383789 -24.964698791503906 6.8710832595825195
-0.15452957153320312 -17.23638343811035 2.3151144981384277
-2.277812957763672 -20.513288497924805 6.443350315093994
-2.678956985473633 -26.905061721801758 5.230991840362549
-1.3064098358154297 -25.85167694091797 2.6512258052825928
-1.3144550323486328 -31.428081512451172 6.680568695068359
-1.0895805358886719 -16.71321678161621 7.46756649017334
-2.383340835571289 -29.685768127441406 4.436522483825684
-2.678253173828125 -19.012954711914062 5.238138198852539
-2.685901641845703 -18.459285736083984 4.84245491027832
-0.9790992736816406 -32.576873779296875 6.52292013168335
-0.5906486511230469 -21.769023895263672 7.631823539733887
-2.374391555786133 -27.33920669555664 6.262674331665039
-0.7281341552734375 -16.50771141052246 7.590108871459961
-0.5926666259765625 -15.883655548095703 7.631211280822754
-1.982330322265625 -18.962400436401367 3.1789543628692627
-0.9421958923339844 -30.38373565673828 7.217161655426025
-2.334667205810547 -19.62338638305664 3.6659507751464844
-2.2188453674316406 -30.16845703125 4.192008018493652
-0.9269332885742188 -29.41663360595703 7.396692752838135
-0.3955516815185547 -30.138315200805664 7.441486358642578
-2.6115875244140625 -19.615825653076172 4.3488945960998535
-1.8014869689941406 -29.800708770751953 6.679768085479736
-0.7113838195800781 -34.08901596069336 5.561819076538086
-2.322784423828125 -17.419734954833984 3.6437249183654785
-0.7213802337646484 -29.490381240844727 2.5518851280212402
-0.5697288513183594 -22.22822380065918 2.364741563796997
-2.6780548095703125 -20.864635467529297 5.240135192871094
-0.5640792846679688 -34.561519622802734 5.348961353302002
-0.24930953979492188 -31.337804794311523 7.209436416625977
-1.9172554016113281 -26.527212142944336 3.0996572971343994
-2.61077880859375 -18.158313751220703 4.346231460571289
-0.9515800476074219 -18.337377548217773 2.480571985244751
-0.8762569427490234 -29.395967483520508 2.5884735584259033
-1.8158130645751953 -32.1334114074707 5.2032790184021
-2.089813232421875 -16.903629302978516 3.3099324703216553
-2.5403594970703125 -16.591781616210938 5.888842582702637
-0.7586154937744141 -32.234859466552734 3.1934661865234375
-2.583873748779297 -16.022138595581055 5.745386123657227
-0.28137779235839844 -31.21179962158203 7.237851142883301
-2.437417984008789 -28.79897689819336 5.823422431945801
-1.114511489868164 -25.506454467773438 2.548645257949829
-1.0022201538085938 -17.540176391601562 7.5069499015808105
-2.1319656372070312 -24.48611068725586 6.6364593505859375
-1.4577522277832031 -20.667823791503906 7.270785331726074
-2.517536163330078 -16.891199111938477 5.964076519012451
-2.5225563049316406 -28.881881713867188 4.526533126831055
-2.530139923095703 -21.51626968383789 5.92252254486084
-2.700305938720703 -21.191370010375977 4.988748550415039
-0.11455535888671875 -24.742290496826172 7.691736221313477
-0.20444488525390625 -28.696758270263672 0.7918180823326111
-1.9740562438964844 -16.992244720458984 3.1688742637634277
-1.4209861755371094 -15.968040466308594 2.712472915649414
-1.1899490356445312 -19.461252212524414 2.5889711380004883
-2.0916748046875 -30.297504425048828 3.9453089237213135
-1.604360580444336 -25.73131561279297 7.162818431854248
-2.3929691314697266 -23.837966918945312 6.227921485900879
-2.6681556701660156 -17.97404670715332 5.3406829833984375
-0.10577774047851562 -19.390945434570312 2.3103137016296387
-1.1458587646484375 -29.20370101928711 7.304190635681152
-0.24741554260253906 -32.1414794921875 3.0024349689483643
-0.4216270446777344 -24.58026123046875 7.661499977111816
-2.517702102661133 -28.994457244873047 4.623695373535156
-1.2464179992675781 -33.612770080566406 4.428182601928711
-2.6983718872070312 -26.385257720947266 4.96908712387085
-0.39931488037109375 -26.74738883972168 7.663696765899658
-1.1732959747314453 -33.418373107910156 4.079617977142334
-1.8893165588378906 -27.570430755615234 6.924223899841309
-1.8072872161865234 -31.414531707763672 3.9375569820404053
-1.4808616638183594 -27.853357315063477 2.768622875213623
-1.703643798828125 -26.68722152709961 2.9215762615203857
-0.1621074676513672 -30.40621566772461 7.41509485244751
-0.28050994873046875 -19.551074981689453 2.327518939971924
-0.9640140533447266 -26.87173080444336 7.51854133605957
-0.12086677551269531 -34.148170471191406 5.724405288696289
-1.1261215209960938 -15.441637992858887 7.44803524017334
-1.7042732238769531 -26.960464477539062 7.080821990966797
-2.265573501586914 -27.499847412109375 6.46624755859375
-0.5988006591796875 -25.314733505249023 2.3735594749450684
-2.5571212768554688 -17.809616088867188 4.169333457946777
-2.4603118896484375 -15.454547882080078 6.101936340332031
-1.8094253540039062 -22.058452606201172 3.0083909034729004
-1.0057373046875 -19.917003631591797 2.4969992637634277
-2.159200668334961 -30.333927154541016 5.880860805511475
-0.3089618682861328 -30.788166046142578 2.6769356727600098
-2.4229164123535156 -19.712757110595703 3.831028461456299
-2.102750778198242 -31.15552520751953 5.223394393920898
-0.7314910888671875 -21.47580909729004 2.4138104915618896
-1.2524948120117188 -26.788082122802734 7.380490779876709
-1.1736030578613281 -21.518827438354492 2.580233097076416
-0.163421630859375 -31.15315055847168 7.26509428024292
-1.6938114166259766 -31.85726547241211 5.9707112312316895
-2.0261383056640625 -16.204776763916016 3.23234224319458
-2.6250991821289062 -22.891937255859375 4.393437385559082
-2.668628692626953 -16.245119094848633 5.3358893394470215
-2.2584877014160156 -18.121994018554688 6.479336738586426
-0.9601287841796875 -31.32122039794922 3.0284438133239746
-0.4976978302001953 -27.150196075439453 7.654009819030762
-0.5702629089355469 -16.205835342407227 7.6380085945129395
-1.5748405456542969 -31.494949340820312 6.359235763549805
-0.1602325439453125 -29.160430908203125 1.0365431308746338
-2.5250205993652344 -17.056514739990234 5.939408302307129
-1.5671253204345703 -31.182260513305664 3.4869251251220703
-1.1628227233886719 -29.783451080322266 7.21015739440918
-2.6332759857177734 -24.373641967773438 5.582527160644531
-1.1376876831054688 -32.972354888916016 6.04356575012207
-1.8555927276611328 -31.43585968017578 5.909481048583984
-2.65753173828125 -26.738740921020508 4.554330348968506
-0.43630218505859375 -18.215404510498047 2.3428595066070557
-1.8405570983886719 -27.035737991333008 3.0339393615722656
-2.4799728393554688 -17.522659301757812 3.9377615451812744
-1.0643997192382812 -16.84268569946289 2.521857500076294
-0.7533798217773438 -21.320785522460938 2.420450210571289
-1.1817684173583984 -27.318063735961914 7.4182939529418945
-1.0512027740478516 -29.531997680664062 7.316119194030762
-2.246021270751953 -24.65963363647461 3.5002853870391846
-2.5230026245117188 -27.53546714782715 5.940914154052734
-0.45496559143066406 -33.12492752075195 6.467843532562256
-1.0954551696777344 -22.943471908569336 7.464426040649414
-0.25331878662109375 -21.104843139648438 7.660221099853516
-1.6313018798828125 -32.62777328491211 4.555993556976318
-1.5984268188476562 -22.328882217407227 2.835226535797119
-1.9043903350830078 -30.580974578857422 3.7156193256378174
-2.6941795349121094 -22.482200622558594 5.076385021209717
-2.664773941040039 -24.494348526000977 5.375024795532227
-0.23175048828125 -21.215782165527344 7.720907688140869
-1.4683914184570312 -19.74822998046875 2.73781418800354
-0.48388671875 -28.21658706665039 2.385324478149414
-1.0209732055664062 -22.394390106201172 7.501260280609131
-0.6915969848632812 -15.301839828491211 7.601195812225342
-0.6214637756347656 -16.408388137817383 2.380434036254883
-1.2935104370117188 -22.727474212646484 2.6443305015563965
-0.2938652038574219 -16.789857864379883 7.674079895019531
-2.6602745056152344 -26.194061279296875 5.4207353591918945
-2.0120620727539062 -20.30884552001953 6.7853593826293945
-2.698223114013672 -17.153736114501953 4.967574119567871
-2.6923599243164062 -17.96778678894043 5.094857692718506
-0.006595611572265625 -29.047142028808594 1.847813606262207
-1.022073745727539 -34.292457580566406 4.718494415283203
-2.1117687225341797 -24.038986206054688 3.336688756942749
-2.524250030517578 -18.355525970458984 5.9419403076171875
-2.1578197479248047 -30.22709846496582 4.041168689727783
-0.41970252990722656 -35.05137634277344 5.016994476318359
-0.5148754119873047 -31.845029830932617 7.020759105682373
-0.5800018310546875 -17.70809555053711 7.635054111480713
-1.3147163391113281 -21.13009262084961 7.347236633300781
-1.7133903503417969 -20.667957305908203 2.9295754432678223
-2.667308807373047 -22.247623443603516 4.6536383628845215
-0.9906044006347656 -21.798961639404297 7.510474681854248
-2.454843521118164 -25.560609817504883 3.8907530307769775
-1.2790298461914062 -32.836822509765625 5.934877395629883
-1.7649555206298828 -27.625865936279297 2.9812073707580566
-1.2518348693847656 -18.3363094329834 2.6220524311065674
-2.258026123046875 -17.2899112701416 3.522589683532715
-0.20302391052246094 -29.155414581298828 2.5066685676574707
-2.4138832092285156 -24.094112396240234 6.1887969970703125
-1.8556747436523438 -31.9847469329834 5.30170202255249
-2.6936798095703125 -17.038864135742188 4.921424865722656
-2.6166725158691406 -19.269641876220703 4.365653991699219
-0.4725933074951172 -35.12666320800781 4.745471477508545
-2.1736526489257812 -20.73422622680664 6.584690570831299
-1.6177749633789062 -27.084571838378906 2.851104259490967
-2.502490997314453 -23.07522201538086 6.013671398162842
-0.7090930938720703 -27.467655181884766 7.59588623046875
-0.0110626220703125 -31.928024291992188 7.085625648498535
-1.2884654998779297 -32.34661865234375 6.2684221267700195
-0.5958747863769531 -19.285642623901367 2.3726720809936523
-2.461986541748047 -17.79631805419922 3.90411639213562
-0.4169654846191406 -17.141151428222656 7.661959648132324
-0.6353168487548828 -28.876781463623047 2.4683303833007812
-1.8962821960449219 -29.20235824584961 3.2989344596862793
-1.3997783660888672 -29.791393280029297 2.939718246459961
-2.526683807373047 -18.900915145874023 5.933915615081787
-2.533700942993164 -29.032236099243164 4.839426040649414
-1.0169639587402344 -27.22119140625 2.5004050731658936
-0.5080165863037109 -28.869672775268555 0.7098520994186401
-2.265531539916992 -24.501075744628906 3.536628007888794
-1.3094635009765625 -18.860088348388672 2.652858018875122
-2.658641815185547 -17.888992309570312 5.437294960021973
-0.1165008544921875 -32.010215759277344 2.9511475563049316
-0.34007835388183594 -28.39354705810547 7.622410774230957
-0.5631732940673828 -34.80458450317383 4.305018424987793
-2.2056961059570312 -29.17708969116211 6.25059700012207
-2.6647262573242188 -17.8099365234375 4.627416610717773
-1.311798095703125 -26.180015563964844 2.6541059017181396
-2.6650123596191406 -26.025644302368164 4.630306243896484
-1.2534370422363281 -32.96284484863281 3.920346260070801
-1.9388313293457031 -16.26134490966797 6.8762993812561035
-0.8106918334960938 -28.737661361694336 7.492150783538818
-0.28043556213378906 -28.638267517089844 0.903620183467865
-0.17437362670898438 -25.181377410888672 2.3170676231384277
-2.138538360595703 -22.285926818847656 6.628293991088867
-2.7003860473632812 -16.66456413269043 5.013381004333496
-1.905609130859375 -31.795429229736328 5.3648271560668945
-1.7033119201660156 -22.800025939941406 7.081609725952148
-2.3496627807617188 -17.529024124145508 6.308934211730957
-1.98052978515625 -18.687768936157227 6.824517250061035
-2.3889122009277344 -24.87565803527832 3.7674224376678467
-2.171649932861328 -23.78237533569336 3.4096579551696777
-2.5721778869628906 -28.413816452026367 4.5326128005981445
-0.2493610382080078 -26.375869750976562 2.324451446533203
-1.8894824981689453 -27.296308517456055 3.0740914344787598
-1.4759140014648438 -22.074020385742188 7.261077880859375
-0.11006927490234375 -21.158832550048828 7.692177772521973
-1.5341510772705078 -29.16118812561035 2.94366455078125
-0.11407470703125 -20.794565200805664 2.3111305236816406
-0.22602272033691406 -29.234512329101562 0.8987334966659546
-2.543853759765625 -19.808086395263672 4.125603675842285
-2.508831024169922 -16.708576202392578 5.9927778244018555
-2.6954002380371094 -19.208179473876953 4.938906192779541
-1.6096477508544922 -31.409128189086914 3.6434099674224854
-2.6651763916015625 -19.385574340820312 5.370937824249268
-1.41021728515625 -32.97940444946289 5.640438556671143
-2.0955276489257812 -15.673494338989258 6.681708335876465
-2.5377273559570312 -17.794851303100586 5.897508144378662
-1.2680320739746094 -33.54879379272461 5.350972652435303
-1.7498779296875 -17.117294311523438 7.043394565582275
-2.1376266479492188 -30.94984245300293 5.42335844039917
-2.541858673095703 -25.271434783935547 5.883893013000488
-0.25371551513671875 -31.979782104492188 2.9573841094970703
-1.6435356140136719 -17.77085304260254 2.8722469806671143
-1.6153545379638672 -28.31109046936035 7.082343578338623
-2.0602951049804688 -21.904449462890625 6.725463390350342
-2.1831207275390625 -17.1461124420166 3.423638343811035
-1.6913394927978516 -32.56219482421875 4.903639793395996
-2.3163318634033203 -24.619258880615234 6.371291160583496
-2.1636924743652344 -16.515300750732422 3.3999640941619873
-2.561767578125 -17.566621780395508 4.184650897979736
-1.6684799194335938 -27.323036193847656 2.892716884613037
-2.164226531982422 -30.559017181396484 4.3225202560424805
-1.6612205505371094 -31.05638313293457 3.5538556575775146
-2.123210906982422 -16.343900680541992 3.3506312370300293
-1.2467231750488281 -18.31308364868164 7.383576393127441
-2.2722930908203125 -22.595163345336914 3.5492749214172363
-0.18189239501953125 -30.90931510925293 7.315965175628662
-2.322162628173828 -23.878862380981445 6.360381126403809
-2.5187835693359375 -17.97390365600586 5.959961414337158
-2.6129302978515625 -21.662580490112305 5.649599075317383
-2.5678672790527344 -17.005210876464844 5.798148155212402
-0.4513282775878906 -33.93304443359375 3.680699348449707
-2.3141326904296875 -16.13895034790039 3.62753963470459
-2.646953582763672 -20.8835506439209 4.465480804443359
-2.064533233642578 -17.589906692504883 6.720198154449463
-2.1344680786132812 -20.53862190246582 6.633350372314453
-1.4581012725830078 -29.1661376953125 7.121608734130859
-2.447338104248047 -20.418045043945312 6.126209259033203
-2.4885520935058594 -28.365345001220703 4.20355224609375
-2.6516075134277344 -18.42519760131836 4.494158744812012
-1.7127304077148438 -17.931570053100586 2.929032802581787
-0.4242095947265625 -16.408645629882812 7.661246299743652
-0.9393119812011719 -33.28687286376953 6.051798343658447
-1.2740211486816406 -19.005569458007812 2.6339118480682373
-1.45782470703125 -19.900226593017578 7.270745754241943
-1.8170700073242188 -22.930234909057617 6.988249778747559
-2.0255470275878906 -22.31232452392578 3.231618642807007
-2.2569847106933594 -28.86726951599121 6.230332374572754
-2.072528839111328 -23.153440475463867 3.288872480392456
-1.3308181762695312 -21.200698852539062 2.664273977279663
-1.7882118225097656 -24.061758041381836 7.011933326721191
-0.7278060913085938 -17.957275390625 7.590209007263184
-2.6822662353515625 -21.876781463623047 4.805539131164551
-0.6932487487792969 -26.432476043701172 7.600693702697754
-1.6831092834472656 -24.129871368408203 7.0981903076171875
-2.0095062255859375 -21.816293716430664 3.212070941925049
-0.8996047973632812 -23.76474380493164 7.538084506988525
-0.5492362976074219 -18.876935958862305 2.358524799346924
-2.1349220275878906 -29.360015869140625 6.34183931350708
-2.684610366821289 -26.527801513671875 5.173582077026367
-2.052989959716797 -30.947975158691406 4.257570743560791
-0.17656707763671875 -21.195960998535156 2.317284107208252
-1.2907524108886719 -22.98096466064453 2.642855167388916
-1.1135482788085938 -18.898656845092773 2.5481297969818115
-1.8119945526123047 -32.18941116333008 4.933018684387207
-2.6825180053710938 -23.15485191345215 5.1948161125183105
-0.6569137573242188 -34.83131790161133 4.48915433883667
-2.499195098876953 -15.763160705566406 3.978379487991333
-1.4470787048339844 -24.84194564819336 2.7264208793640137
-2.0590038299560547 -28.94562339782715 3.458308458328247
-1.9319286346435547 -31.799747467041016 4.94353723526001
-1.4190902709960938 -33.293190002441406 5.1185736656188965
-0.7102432250976562 -16.826074600219727 7.595538139343262
-0.3000659942626953 -24.928516387939453 7.673469066619873
-2.530080795288086 -23.381349563598633 5.92272424697876
-0.095458984375 -17.76197052001953 2.309297561645508
-2.660919189453125 -16.321964263916016 4.588732719421387
-2.140045166015625 -29.580556869506836 6.255801200866699
-2.199329376220703 -23.016862869262695 3.443389415740967
-1.9068450927734375 -21.600194931030273 3.088341474533081
-1.3530540466308594 -15.658733367919922 2.6761600971221924
-0.07882881164550781 -33.188480377197266 3.2883057594299316
-0.718719482421875 -34.220645904541016 5.472858428955078
-2.668670654296875 -18.095718383789062 5.335472583770752
-2.0449180603027344 -18.19108009338379 6.744558334350586
-1.1185073852539062 -15.454597473144531 2.5507819652557373
-1.7566051483154297 -27.972877502441406 6.996031761169434
-1.9997539520263672 -28.29661750793457 6.703954696655273
-0.030004501342773438 -29.068801879882812 2.9712836742401123
-2.374052047729492 -26.524986267089844 6.263309478759766
-1.585845947265625 -26.837474822998047 2.8249006271362305
-0.8220329284667969 -24.44598388671875 2.441275119781494
-1.9662590026855469 -16.296611785888672 3.159371852874756
-1.6873607635498047 -24.617202758789062 2.908212900161743
-2.6672210693359375 -26.420665740966797 5.3501787185668945
-2.247699737548828 -21.03862190246582 6.492734909057617
-2.6796417236328125 -22.407041549682617 4.778894424438477
-1.7678070068359375 -27.927047729492188 3.0100860595703125
-2.3193359375 -24.59800148010254 3.6372735500335693
-0.8347663879394531 -34.220035552978516 4.126018524169922
-0.7025794982910156 -20.34671974182129 2.4050405025482178
-0.3906841278076172 -29.50125503540039 0.5594993829727173
-0.8631000518798828 -24.840682983398438 7.549159526824951
-0.3755512237548828 -24.361650466918945 2.33687686920166
-1.0302448272705078 -33.40625 3.869847297668457
-0.14449691772460938 -29.090723037719727 0.8853490352630615
-1.0608711242675781 -19.482364654541016 2.5199708938598633
-0.42948150634765625 -29.680328369140625 2.499312400817871
-2.6858386993408203 -24.21784019470215 5.161099433898926
-0.3015594482421875 -15.745266914367676 7.673323154449463
-1.999032974243164 -31.18171501159668 5.713178634643555
-0.325225830078125 -29.93695831298828 2.5252914428710938
-2.649768829345703 -19.306827545166016 5.527421951293945
-2.50970458984375 -17.747753143310547 4.013014793395996
-0.07045173645019531 -29.293766021728516 7.5864787101745605
-1.8150081634521484 -29.37435531616211 3.227086067199707
-1.2422714233398438 -32.5086784362793 3.6731338500976562
-1.3375511169433594 -17.765764236450195 2.667872428894043
-1.1818504333496094 -24.66448211669922 2.584641456604004
-0.3359413146972656 -18.684167861938477 7.669937610626221
-1.1482925415039062 -15.97834587097168 2.5667028427124023
-2.6647491455078125 -15.331427574157715 5.375300407409668
-1.687713623046875 -28.21088409423828 2.9695892333984375
-2.464221954345703 -20.79062271118164 6.094626426696777
-1.2610855102539062 -20.6965389251709 7.375901222229004
-1.3267860412597656 -19.508298873901367 7.340785026550293
-1.1379680633544922 -32.315818786621094 3.4906997680664062
-2.6627025604248047 -25.88711166381836 4.606854438781738
-2.6534805297851562 -20.560453414916992 4.51320743560791
-1.7154960632324219 -21.980764389038086 2.931304693222046
-0.6333293914794922 -23.91425132751465 2.3840341567993164
-2.4519710540771484 -26.147729873657227 6.117542266845703
-2.5311832427978516 -27.856353759765625 5.813303470611572
-1.2441864013671875 -31.288236618041992 6.792415142059326
-2.4697837829589844 -24.772897720336914 6.0842204093933105
-1.5712432861328125 -32.54413604736328 5.662749290466309
-0.6520729064941406 -32.724483489990234 3.2922427654266357
-2.3318023681640625 -18.319969177246094 6.342350482940674
-0.5182762145996094 -28.364456176757812 7.604717254638672
-2.3807449340820312 -16.43855094909668 6.250787258148193
-2.530599594116211 -27.25383758544922 4.081903457641602
-0.037174224853515625 -18.620994567871094 7.699355125427246
-1.0111503601074219 -22.043476104736328 7.504240989685059
-1.1805763244628906 -30.582796096801758 7.036707878112793
-2.281797409057617 -25.777912139892578 3.567056179046631
-2.4815139770507812 -17.200035095214844 3.940643787384033
-2.0672149658203125 -18.01678466796875 6.716869831085205
-0.10999679565429688 -16.097681045532227 2.310729503631592
-0.2864055633544922 -24.18651008605957 7.6748151779174805
-2.6672935485839844 -15.895808219909668 4.653470993041992
-1.3689079284667969 -33.42613983154297 5.15303373336792
-2.2085800170898438 -23.24713706970215 6.541314125061035
-0.59552001953125 -31.018951416015625 2.789937973022461
-1.6518058776855469 -32.34722900390625 5.595057487487793
-2.4882125854492188 -26.94901466369629 6.049745559692383
-2.696521759033203 -16.003767013549805 4.950323104858398
-2.555194854736328 -15.641191482543945 5.839929103851318
-0.854644775390625 -15.750499725341797 2.4511682987213135
-2.5014114379882812 -26.165895462036133 3.9856770038604736
-0.3440361022949219 -29.344493865966797 2.4350013732910156
-2.1711654663085938 -18.215770721435547 6.587778568267822
-1.5874519348144531 -20.533531188964844 7.176694869995117
-0.24733352661132812 -20.352022171020508 7.678662300109863
-2.3464622497558594 -19.046382904052734 6.314925670623779
-1.091726303100586 -29.089656829833984 2.656546115875244
-2.505319595336914 -27.71462631225586 4.058411598205566
-0.7324943542480469 -26.61118507385254 7.5887861251831055
-2.2462902069091797 -25.259153366088867 3.500638008117676
-0.4466972351074219 -29.44100570678711 2.0124759674072266
-2.2134857177734375 -28.33648109436035 6.419894218444824
-0.08189773559570312 -30.828779220581055 7.342031478881836
-1.7511215209960938 -26.839866638183594 7.042374610900879
-0.07213783264160156 -26.216022491455078 2.3070013523101807
-1.281646728515625 -17.373292922973633 7.364911079406738
-0.7145366668701172 -30.320152282714844 7.317724227905273
-2.6198787689208984 -28.26346206665039 4.878591537475586
-1.2323169708251953 -33.19401550292969 4.020298004150391
-2.3574981689453125 -22.763893127441406 6.294275283813477
-0.14394378662109375 -26.063095092773438 7.6888427734375
-2.6886959075927734 -27.54096221923828 4.89149808883667
-0.19536399841308594 -27.169584274291992 7.683779239654541
-1.076202392578125 -17.474565505981445 2.5281667709350586
-2.0378036499023438 -28.405780792236328 3.353940963745117
-1.1306915283203125 -18.20882797241211 2.5572938919067383
-1.4368629455566406 -27.12415313720703 7.281949520111084
-2.69464111328125 -26.457698822021484 5.071708679199219
-0.2962684631347656 -23.36886978149414 7.6738433837890625
-2.617034912109375 -27.48322296142578 4.366847038269043
-1.257791519165039 -27.608810424804688 2.6313915252685547
-1.4877758026123047 -28.133121490478516 7.204658031463623
-2.6643409729003906 -16.541114807128906 4.623482704162598
-0.8907966613769531 -24.88218879699707 2.4621338844299316
-1.405853271484375 -33.117733001708984 5.488040447235107
-2.6522254943847656 -24.515823364257812 5.50247859954834
-0.1531219482421875 -21.435182571411133 2.3149757385253906
-2.1275177001953125 -22.146028518676758 3.355879068374634
-0.3553142547607422 -27.25766944885254 2.3348841667175293
-2.1138763427734375 -26.346725463867188 6.658923149108887
-0.002552032470703125 -25.658416748046875 7.614240646362305
-1.5017738342285156 -15.938506126403809 7.247010707855225
-2.0051708221435547 -27.098411560058594 3.206789016723633
-0.5574703216552734 -32.104148864746094 6.932255744934082
-1.1753292083740234 -24.61118507385254 7.4217352867126465
-2.524017333984375 -20.42221450805664 4.0602030754089355
-1.8171977996826172 -28.0889892578125 6.935598373413086
-2.664125442504883 -24.114524841308594 4.621293067932129
-1.4318599700927734 -29.662742614746094 7.061774253845215
-0.6452369689941406 -27.433992385864258 2.3876452445983887
-1.7196578979492188 -30.75567626953125 6.474632263183594
-0.08747100830078125 -22.60700035095215 7.694402694702148
-1.8436756134033203 -24.22968292236328 3.036499500274658
-0.6548614501953125 -24.095991134643555 2.3905653953552246
-0.8054828643798828 -28.57802963256836 2.4990220069885254
-1.9215888977050781 -25.382173538208008 6.897714138031006
-1.8948612213134766 -31.498065948486328 4.249200344085693
-0.320037841796875 -22.553115844726562 7.671503067016602
-1.0305709838867188 -23.584983825683594 2.504532814025879
-0.19765663146972656 -23.63306427001953 7.683554172515869
-0.41674232482910156 -32.374420166015625 6.884725093841553
-0.4582843780517578 -28.90838050842285 2.1332154273986816
-2.5061683654785156 -23.282217025756836 4.001362323760986
-2.568767547607422 -19.791187286376953 5.795187950134277
-2.375225067138672 -27.492202758789062 6.261116981506348
-1.3912506103515625 -24.663053512573242 7.306328296661377
-0.8071956634521484 -24.707426071166992 2.436774253845215
-2.5682411193847656 -24.455860137939453 4.205994606018066
-1.5355396270751953 -29.500322341918945 2.9944894313812256
-1.1259040832519531 -19.88477897644043 7.448153018951416
-2.6653518676757812 -20.000511169433594 5.36914587020874
-2.6060924530029297 -26.109315872192383 5.672137260437012
-0.03269004821777344 -34.03895568847656 3.637704372406006
-0.021060943603515625 -17.099132537841797 7.700942516326904
-2.5160140991210938 -20.258037567138672 5.9690985679626465
-1.4018936157226562 -17.695201873779297 7.300640106201172
-1.566986083984375 -15.543338775634766 7.193492889404297
-2.6276473999023438 -25.825281143188477 5.601080894470215
-1.5898818969726562 -27.337383270263672 7.174701690673828
-1.324960708618164 -33.31580352783203 5.490328311920166
-2.5982627868652344 -21.5745849609375 4.304959297180176
-2.676116943359375 -23.945329666137695 5.259828567504883
-1.9778785705566406 -25.893047332763672 6.827809810638428
-0.5788230895996094 -23.79842758178711 7.635411262512207
-2.0567626953125 -23.36032485961914 3.2696597576141357
-2.3848876953125 -29.81387710571289 4.56674861907959
-1.2909812927246094 -18.534910202026367 2.642977714538574
-1.6511116027832031 -30.67245101928711 6.59539794921875
-2.6793899536132812 -23.352697372436523 4.776322364807129
-0.590301513671875 -21.95134735107422 2.3709816932678223
-0.6946487426757812 -30.60404396057129 2.736323356628418
-2.6709747314453125 -19.89114761352539 5.3120574951171875
-2.664030075073242 -26.729171752929688 5.3825883865356445
-0.7892303466796875 -19.19269561767578 7.571572780609131
-1.0844459533691406 -33.526424407958984 4.009870529174805
-1.1176223754882812 -15.802955627441406 7.452579021453857
-1.4604682922363281 -33.19721221923828 5.053220272064209
-0.19807052612304688 -21.835899353027344 7.6835126876831055
-0.6669502258300781 -23.233566284179688 7.608673095703125
2.6807785034179688 -17.53769874572754 5.2124857902526855
-0.9540233612060547 -26.04458236694336 7.521573066711426
-0.20115280151367188 -31.610305786132812 2.857316493988037
-1.6973381042480469 -27.75381851196289 2.9368743896484375
-1.0701255798339844 -33.11771774291992 3.755558490753174
-1.8063735961914062 -25.62481117248535 3.0058860778808594
-0.8323478698730469 -30.06317138671875 7.327927589416504
-2.424762725830078 -28.394861221313477 6.001522064208984
-2.416229248046875 -18.500022888183594 3.818524122238159
-1.0568618774414062 -20.504642486572266 7.485053539276123
-1.514688491821289 -24.209014892578125 7.236412048339844
-2.684061050415039 -25.821022033691406 4.823753833770752
-1.7988662719726562 -31.51706314086914 4.027693271636963
-1.120016098022461 -33.774574279785156 5.405961513519287
-1.7534160614013672 -26.796228408813477 2.9624240398406982
-1.4955406188964844 -17.609928131103516 2.7523257732391357
-1.4861717224121094 -18.187911987304688 2.7473177909851074
-0.9890365600585938 -17.80978775024414 2.4919347763061523
-1.3965606689453125 -23.11850357055664 7.30349063873291
-0.8550338745117188 -15.887115478515625 7.551607131958008
-0.3371715545654297 -32.12398147583008 6.987159729003906
-1.1233081817626953 -34.05873107910156 4.856539249420166
-2.614002227783203 -27.04092025756836 4.356849670410156
-1.9863090515136719 -15.992774963378906 3.1838035583496094
-0.8532676696777344 -26.2594051361084 2.450749635696411
-0.11377334594726562 -27.65715789794922 2.318483352661133
-2.666515350341797 -17.035865783691406 5.357357501983643
-0.9599227905273438 -31.511213302612305 3.0846877098083496
-2.0184555053710938 -26.67609977722168 3.2229766845703125
-2.382526397705078 -21.714027404785156 6.247455596923828
2.546924591064453 -18.630908966064453 5.867199420928955
-0.2105121612548828 -28.353965759277344 7.6375579833984375
-1.0083656311035156 -18.85735511779785 2.4977974891662598
-2.2629432678222656 -21.186262130737305 6.471169471740723
-1.0860176086425781 -20.61087989807129 2.533414840698242
-0.6379146575927734 -34.92080307006836 4.643908500671387
-0.8004951477050781 -21.694053649902344 2.4347424507141113
-2.6630897521972656 -18.67716407775879 5.392134189605713
-0.6359519958496094 -33.00994873046875 3.3827531337738037
-0.22064208984375 -27.96712875366211 2.345578670501709
-2.4666175842285156 -22.819042205810547 6.090142250061035
-0.6543312072753906 -20.041521072387695 2.3904051780700684
-1.0472755432128906 -20.861587524414062 2.512704372406006
-1.2193641662597656 -18.787994384765625 2.6046957969665527
-1.0999259948730469 -21.765277862548828 2.540848731994629
-1.8246002197265625 -29.348058700561523 6.766543388366699
-1.5669384002685547 -30.982547760009766 6.59726095199585
-2.2630691528320312 -17.745285034179688 6.47093391418457
-2.6557178497314453 -23.50918960571289 5.467002868652344
-1.5833740234375 -19.38772201538086 7.1800432205200195
-2.3446922302246094 -20.85903549194336 6.3182373046875
-2.506002426147461 -24.605947494506836 6.00209903717041
-1.4327735900878906 -15.787946701049805 7.284136772155762
-1.3466835021972656 -19.346208572387695 2.6727538108825684
-2.6942138671875 -17.73757553100586 4.926884651184082
-1.5490150451660156 -15.296712875366211 2.7946722507476807
-0.3108253479003906 -29.282238006591797 0.4418923556804657
-1.4717884063720703 -31.130584716796875 6.648735523223877
-1.1157341003417969 -16.912094116210938 7.453587532043457
1.4760990142822266 -33.112396240234375 5.230023384094238
-1.1222763061523438 -21.481904983520508 7.450091361999512
-1.0249671936035156 -20.37346839904785 2.5028326511383057
-1.318603515625 -19.6297550201416 7.345158576965332
-1.9309940338134766 -26.978410720825195 3.1163995265960693
-1.1245574951171875 -21.979795455932617 7.448871612548828
-0.09986114501953125 -29.090656280517578 7.599477291107178
-0.11927604675292969 -28.81488037109375 2.726010322570801
-2.6728687286376953 -27.390087127685547 4.710088729858398
-1.9948768615722656 -16.604801177978516 3.194246768951416
-1.6878662109375 -21.348812103271484 7.094287872314453
-2.1903305053710938 -22.52728843688965 3.4324238300323486
-0.15649986267089844 -29.57746124267578 2.454988956451416
-2.388580322265625 -21.890893936157227 6.236129283905029
-0.41291046142578125 -25.63803482055664 2.340555191040039
-0.7790279388427734 -23.852556228637695 7.574667930603027
-2.1274032592773438 -19.432584762573242 3.355738878250122
-0.06115150451660156 -29.235685348510742 1.404197335243225
-1.8657302856445312 -15.514934539794922 3.054598808288574
-2.282764434814453 -20.065860748291016 3.5688624382019043
-1.4701576232910156 -33.20355987548828 4.91799259185791
-2.479778289794922 -29.208595275878906 5.490942001342773
-1.0773735046386719 -30.888357162475586 2.9778060913085938
-2.261770248413086 -27.280799865722656 6.473363399505615
-2.0870513916015625 -16.686429977416992 3.306567430496216
-1.4971733093261719 -23.618427276611328 7.249715328216553
-0.4391593933105469 -33.5573844909668 6.040287017822266
-2.4870872497558594 -16.574657440185547 6.051848411560059
-0.19421958923339844 -24.019826889038086 7.667267799377441
-1.2744216918945312 -27.156349182128906 2.6341257095336914
-0.4446868896484375 -17.49606704711914 7.6592302322387695
-2.1088943481445312 -30.39357566833496 4.027153968811035
-1.9978218078613281 -22.848739624023438 3.197835683822632
-2.078521728515625 -22.596500396728516 6.702827453613281
-2.047496795654297 -30.16663360595703 3.794785499572754
-2.113056182861328 -26.222864151000977 6.659940719604492
-2.6094322204589844 -17.39305877685547 5.661134719848633
-1.9900894165039062 -22.351545333862305 6.812646389007568
-2.3800907135009766 -30.020687103271484 4.9297194480896
2.675830841064453 -19.710142135620117 5.26275634765625
-0.06095123291015625 -25.908935546875 7.697014331817627
-0.04554939270019531 -35.33244705200195 4.792738437652588
-0.034793853759765625 -23.135665893554688 7.699589729309082
-2.6519317626953125 -15.79605484008789 5.505462169647217
-0.46106719970703125 -29.21110725402832 2.9580633640289307
-0.5106201171875 -19.82965660095215 7.652737617492676
-2.6781997680664062 -21.54007339477539 5.23867130279541
-2.6763916015625 -16.450836181640625 4.745883941650391
-0.20546722412109375 -18.736623764038086 7.682784557342529
-0.1712627410888672 -27.85141944885254 2.3345301151275635
-0.06869316101074219 -33.84334182739258 3.5551211833953857
-2.2903079986572266 -30.183086395263672 5.551414489746094
-0.6760406494140625 -25.19755744934082 7.60591459274292
-0.4525718688964844 -30.75959014892578 7.312158107757568
-2.6889915466308594 -16.16901397705078 4.8738203048706055
-0.4893150329589844 -21.435028076171875 2.348079204559326
-2.6751441955566406 -20.482990264892578 5.2697014808654785
-1.8270702362060547 -26.438034057617188 3.022871255874634
-1.1475372314453125 -20.768362045288086 2.566298723220825
-2.562114715576172 -19.932613372802734 5.81712007522583
-2.2926597595214844 -17.509620666503906 6.415573596954346
-2.5831375122070312 -19.191020965576172 5.7478179931640625
-0.18771743774414062 -20.651037216186523 7.731965065002441
-1.7348594665527344 -24.234262466430664 7.05571985244751
-1.3330574035644531 -32.22199249267578 6.304469585418701
-2.0123634338378906 -30.301834106445312 3.7916617393493652
-1.0963459014892578 -27.57012367248535 2.5424365997314453
-2.0879287719726562 -28.02751922607422 3.3683266639709473
-2.67254638671875 -19.185653686523438 4.706816673278809
-2.237110137939453 -25.952342987060547 6.505886077880859
-2.4171981811523438 -16.533214569091797 6.182596206665039
-0.9570083618164062 -32.459747314453125 6.6144256591796875
-1.2772483825683594 -25.110145568847656 2.6356377601623535
-1.7277603149414062 -29.759910583496094 3.215608596801758
-0.7299766540527344 -19.757240295410156 7.589550018310547
-2.072834014892578 -21.357112884521484 6.709888935089111
-1.4756755828857422 -28.543880462646484 2.8238611221313477
-1.9897537231445312 -24.43335723876953 3.1880037784576416
-1.882843017578125 -28.606651306152344 3.1869804859161377
-2.6932449340820312 -16.297908782958984 4.917047500610352
-1.6917686462402344 -28.853504180908203 3.03706955909729
-0.5726547241210938 -31.200420379638672 7.174036026000977
-0.9801921844482422 -34.015201568603516 4.210771560668945
-0.52313232421875 -33.818389892578125 5.788449287414551
-2.2425003051757812 -16.883359909057617 3.495994806289673
-2.157604217529297 -18.562612533569336 3.3925440311431885
-2.1191864013671875 -25.653343200683594 3.3457281589508057
-2.595317840576172 -26.865997314453125 4.2952561378479
-2.2422332763671875 -19.839717864990234 6.499521732330322
-2.5529098510742188 -23.61090087890625 4.155450820922852
-1.1236724853515625 -25.51667022705078 7.44934606552124
-2.599018096923828 -16.537525177001953 4.307456970214844
-0.3200836181640625 -28.715988159179688 0.6639267206192017
-0.7454357147216797 -30.34187889099121 2.6989831924438477
-0.9214324951171875 -15.618012428283691 2.4714279174804688
-1.2851543426513672 -33.692543029785156 4.8918561935424805
-1.8123283386230469 -19.40730094909668 6.9921417236328125
-1.8772869110107422 -29.73434829711914 3.3969857692718506
-2.268278121948242 -30.328948974609375 5.506906032562256
-1.6968040466308594 -24.78670883178711 2.9159626960754395
-2.6079673767089844 -18.28895378112793 4.336953163146973
-1.9304676055908203 -29.635833740234375 6.5591301918029785
-0.01854705810546875 -31.933197021484375 2.9194376468658447
-1.9874534606933594 -23.853919982910156 3.1852004528045654
-1.8199424743652344 -18.665658950805664 3.0170202255249023
-2.5642776489257812 -28.803421020507812 4.8553690910339355
-2.600189208984375 -15.846280097961426 4.311316967010498
-1.7956924438476562 -19.58207893371582 7.005795478820801
-0.06901168823242188 -19.850313186645508 7.696220874786377
-2.6656494140625 -19.258630752563477 5.366147041320801
-2.4163856506347656 -19.099023818969727 6.18411111831665
-2.1278953552246094 -18.82573890686035 3.3563411235809326
-2.4967269897460938 -18.01047706604004 3.97023868560791
-2.5666961669921875 -27.523822784423828 5.800527572631836
-1.6348819732666016 -31.664430618286133 6.201507568359375
-2.6166419982910156 -16.798921585083008 5.637359619140625
-2.5063610076904297 -25.010238647460938 6.00091552734375
-2.5429840087890625 -27.370214462280273 5.880181312561035
-0.5831260681152344 -22.460628509521484 2.368805408477783
-1.6286659240722656 -15.869175910949707 7.142873287200928
-0.7987422943115234 -27.051862716674805 2.4342098236083984
-0.5901756286621094 -26.842599868774414 2.370943069458008
-2.5759830474853516 -27.02577781677246 5.771399974822998
-1.0000038146972656 -29.00088119506836 7.40494966506958
-1.9099922180175781 -20.681856155395508 3.0909230709075928
-2.1650314331054688 -19.055618286132812 3.4015955924987793
-1.6436004638671875 -17.65043067932129 7.130616188049316
-1.0260467529296875 -29.188941955566406 7.371822834014893
-0.9410057067871094 -24.551006317138672 2.4773640632629395
-2.109813690185547 -15.328862190246582 3.3343048095703125
-1.9265213012695312 -17.171642303466797 3.110948085784912
-2.0359039306640625 -24.95409393310547 3.2442405223846436
-2.6526565551757812 -17.30087661743164 5.498087406158447
-1.9184246063232422 -25.38728904724121 3.1010823249816895
-0.7391185760498047 -29.622814178466797 7.424907684326172
-1.6511478424072266 -29.63128662109375 6.88193416595459
-2.6718673706054688 -21.826885223388672 5.302977561950684
-1.5459518432617188 -24.786863327026367 2.792158842086792
-0.3005485534667969 -31.286865234375 2.7860844135284424
-1.1708431243896484 -31.150978088378906 6.903804302215576
-2.440380096435547 -23.971858978271484 3.8636999130249023
-2.5248374938964844 -28.413692474365234 5.6596174240112305
-0.15243148803710938 -31.422710418701172 2.804729461669922
-1.6840763092041016 -23.52910041809082 7.097397327423096
-2.012187957763672 -22.192052841186523 3.2153422832489014
-0.031566619873046875 -17.547462463378906 7.699907302856445
-0.17441368103027344 -29.20461082458496 0.5619180202484131
-2.6443634033203125 -27.64092445373535 4.5356974601745605
-1.89837646484375 -18.22119903564453 6.921523094177246
-0.8434104919433594 -29.856279373168945 7.356250286102295
-2.6813392639160156 -16.38184928894043 5.206786632537842
-2.5363006591796875 -19.32646942138672 5.902215003967285
-0.17505264282226562 -22.02387046813965 2.3171350955963135
-0.9994335174560547 -32.83775329589844 6.326984405517578
-1.4328384399414062 -18.477174758911133 2.718808174133301
-2.534343719482422 -21.364652633666992 4.0942463874816895
-1.3131980895996094 -32.589637756347656 6.04979133605957
-2.6822433471679688 -17.128480911254883 4.805281162261963
-1.7748680114746094 -16.5421199798584 7.022884368896484
-0.5080528259277344 -28.935577392578125 1.2390910387039185
-2.431743621826172 -28.68605613708496 4.11517333984375
-2.649738311767578 -18.31378173828125 5.527750015258789
-2.6674957275390625 -16.890390396118164 5.347400188446045
-1.1560802459716797 -33.40261459350586 5.712897300720215
-2.6756935119628906 -16.94940757751465 4.738792419433594
-1.8188934326171875 -15.546875 6.986753940582275
-1.5216064453125 -32.674285888671875 4.230832099914551
-1.4675159454345703 -32.96626663208008 5.483948230743408
-1.3955497741699219 -26.530548095703125 7.3040313720703125
-0.6481513977050781 -32.35590362548828 3.1751532554626465
-2.2942962646484375 -30.289697647094727 4.617274284362793
-0.7949466705322266 -33.680076599121094 5.779245376586914
-0.10533714294433594 -24.15400505065918 7.705994606018066
-0.09211158752441406 -29.243736267089844 0.9420710802078247
-0.9382190704345703 -24.99660301208496 7.526368141174316
-1.6451568603515625 -21.659866333007812 7.129337310791016
-2.38055419921875 -19.129606246948242 3.751791477203369
-2.4765853881835938 -25.62541961669922 6.0714945793151855
-1.222909927368164 -25.638931274414062 7.396303176879883
-0.309906005859375 -17.841266632080078 2.330413818359375
-2.1908302307128906 -28.799964904785156 6.373551368713379
-0.6789207458496094 -24.300085067749023 7.605040550231934
-1.4905319213867188 -31.760793685913086 3.6462059020996094
-2.109699249267578 -17.854938507080078 6.664109230041504
-2.641765594482422 -26.148761749267578 5.554538249969482
-0.92425537109375 -18.70058250427246 2.4722838401794434
-2.5372695922851562 -15.315903663635254 5.899024486541748
-2.3880462646484375 -26.793561935424805 3.7658042907714844
-0.57391357421875 -19.66669273376465 7.636900901794434
-2.095714569091797 -27.90003776550293 3.362297773361206
-0.17441368103027344 -29.4437313079834 1.20945405960083
-0.8615131378173828 -27.10012435913086 7.549640655517578
-1.5378665924072266 -26.56427764892578 7.2173895835876465
-2.0324859619140625 -22.055789947509766 3.2400765419006348
-2.6728267669677734 -24.566688537597656 4.709662437438965
-2.1457252502441406 -22.505765914916992 6.619369983673096
-2.0913619995117188 -28.287944793701172 3.405526638031006
-2.144695281982422 -26.668283462524414 3.376811981201172
-2.1447372436523438 -21.677839279174805 3.3768653869628906
-2.280658721923828 -28.5650634765625 3.751455307006836
-1.5443744659423828 -26.183792114257812 2.790864944458008
-0.3811912536621094 -31.41510009765625 2.8272948265075684
-1.6447029113769531 -16.968860626220703 2.873203754425049
-0.8761062622070312 -18.51591682434082 2.4576776027679443
-1.7084274291992188 -31.683727264404297 6.050729751586914
-1.3994140625 -18.390975952148438 7.301965713500977
-2.4554519653320312 -28.909008026123047 5.714969635009766
-1.7309417724609375 -16.75459098815918 7.058936595916748
-1.0107231140136719 -32.97682571411133 3.6392581462860107
-2.6377639770507812 -22.67830467224121 4.4351806640625
-2.056398391723633 -25.66986846923828 6.730301856994629
-2.574420928955078 -25.753948211669922 4.226367473602295
-2.5128345489501953 -23.53872299194336 5.979578495025635
-1.76324462890625 -17.742183685302734 7.0324249267578125
-2.627279281616211 -25.228635787963867 4.400620937347412
-0.5257930755615234 -25.57513999938965 2.351670265197754
-2.0306549072265625 -31.034591674804688 5.750934600830078
-2.5038414001464844 -26.775497436523438 3.993692636489868
-0.3000640869140625 -23.71446990966797 2.329444646835327
-0.037258148193359375 -15.953413009643555 7.699347496032715
-0.5836772918701172 -32.791465759277344 6.657549858093262
-1.6012630462646484 -30.636178970336914 3.3277766704559326
-0.3398418426513672 -24.478622436523438 7.669552803039551
-0.5485458374023438 -19.054166793823242 7.644598484039307
-1.8674697875976562 -20.37790298461914 6.946887969970703
-1.2417068481445312 -16.964183807373047 7.386257171630859
-0.7656669616699219 -19.891544342041016 7.57872200012207
-1.099334716796875 -19.001951217651367 7.462352752685547
-0.6660079956054688 -21.305377960205078 7.608958721160889
-1.8155517578125 -31.807579040527344 4.291326999664307
-2.621774673461914 -23.505146026611328 4.38247537612915
-2.381671905517578 -19.830581665039062 6.249056816101074
-0.2548694610595703 -25.88983154296875 2.324993848800659
-2.009675979614258 -31.053035736083984 4.19326639175415
-1.9676361083984375 -31.46389389038086 4.472638130187988
-2.0759544372558594 -16.160255432128906 6.706016540527344
-2.661773681640625 -24.62887954711914 5.40550422668457
-0.9006557464599609 -23.892553329467773 7.5377655029296875
-2.652912139892578 -18.05752182006836 4.507434844970703
-0.8927841186523438 -20.024368286132812 7.540153503417969
-2.6844444274902344 -18.783187866210938 4.827662467956543
-0.7247390747070312 -29.023868560791016 2.508458137512207
-2.547271728515625 -16.444091796875 5.866050720214844
-1.9469451904296875 -29.419063568115234 3.4011147022247314
-2.4443321228027344 -21.970714569091797 6.131836414337158
-1.7174186706542969 -22.465618133544922 7.070032119750977
-2.666982650756836 -27.77967071533203 4.896575450897217
-2.5063133239746094 -19.71707534790039 6.001071929931641
-1.6897735595703125 -19.177474975585938 2.910191297531128
-0.4471321105957031 -29.797937393188477 7.484902381896973
-0.9760169982910156 -23.00238037109375 2.4879846572875977
-1.577413558959961 -30.4735107421875 6.745339870452881
-0.22634315490722656 -28.949464797973633 1.0927201509475708
-1.4213485717773438 -19.91179847717285 2.712665557861328
-1.020782470703125 -24.20211410522461 2.501563787460327
-0.9210014343261719 -34.46265411376953 4.641696929931641
-2.6665878295898438 -23.425533294677734 5.356614112854004
-2.2356433868408203 -27.76571273803711 3.5240092277526855
-2.115520477294922 -21.962146759033203 3.341262102127075
-2.681985855102539 -24.21019744873047 4.802676677703857
-2.6915416717529297 -26.55217742919922 4.8997344970703125
-2.3512630462646484 -25.847728729248047 3.696998119354248
-2.653217315673828 -16.998523712158203 5.492389678955078
-1.886037826538086 -28.03297233581543 3.1225523948669434
-0.3646087646484375 -34.429744720458984 3.899812698364258
-1.6300926208496094 -18.059444427490234 7.141702175140381
-0.15860366821289062 -28.640199661254883 7.627228736877441
-1.9586410522460938 -23.738056182861328 3.15008807182312
-1.4870185852050781 -24.992687225341797 2.7477707862854004
-1.5921707153320312 -26.182872772216797 7.17282247543335
-2.158733367919922 -23.483203887939453 3.3939199447631836
-2.4952735900878906 -15.322657585144043 3.9663829803466797
-2.7006187438964844 -20.683500289916992 4.991928577423096
-1.4011096954345703 -25.783615112304688 7.301059246063232
-0.4894294738769531 -22.791706085205078 2.348090887069702
-1.0367050170898438 -30.893253326416016 7.046413421630859
-2.3494415283203125 -27.186752319335938 3.693589448928833
-2.1663055419921875 -24.59538459777832 6.593814849853516
-1.5381011962890625 -24.431825637817383 2.7857165336608887
-1.7220916748046875 -23.265718460083008 2.9367165565490723
-2.6827621459960938 -20.117612838745117 4.810576438903809
-2.0942039489746094 -16.70705795288086 6.683352947235107
-2.690013885498047 -25.958648681640625 4.884218215942383
-1.1553821563720703 -23.461820602416992 2.57049298286438
-2.6976966857910156 -22.17216682434082 4.962253093719482
-2.602205276489258 -25.663522720336914 4.3179612159729
-2.6646270751953125 -15.512541770935059 4.626377105712891
-0.7015228271484375 -19.846559524536133 2.4047200679779053
-1.6769371032714844 -30.648021697998047 3.4286727905273438
-2.601472854614258 -24.319732666015625 5.687368392944336
-1.9690208435058594 -30.162839889526367 3.638823986053467
-2.0552635192871094 -15.415672302246094 3.2678329944610596
-2.5239601135253906 -15.60234546661377 4.060018539428711
-1.7188796997070312 -24.436084747314453 2.9340806007385254
-2.3886070251464844 -16.964298248291016 6.236081123352051
-1.4538822174072266 -24.812793731689453 7.272852897644043
-1.3289451599121094 -24.767547607421875 7.339630603790283
-1.292877197265625 -17.018754959106445 2.643990993499756
-2.34796142578125 -18.74129295349121 3.690822124481201
-1.1109600067138672 -27.634685516357422 7.447781085968018
-0.2028217315673828 -25.350933074951172 2.319869041442871
-2.3631134033203125 -30.13536834716797 5.022617816925049
-1.1053295135498047 -33.78382873535156 4.2508225440979
-0.5408172607421875 -21.795185089111328 2.355971336364746
-1.314157485961914 -25.251222610473633 2.655367374420166
-2.302532196044922 -24.77734375 6.397103786468506
