# .PCD v0.7 - Point Cloud Data file format
VERSION 0.7
FIELDS x y z
SIZE 4 4 4
TYPE F F F
COUNT 1 1 1
WIDTH 1556
HEIGHT 1
VIEWPOINT 0 0 0 0 0.5 0 0
POINTS 1556
DATA ascii
9.6771965 -4.9637561 3.1110466
8.3145599 -8.524704 1.2276795
9.0079718 -4.717905 1.1269774
7.7385859 -6.2384653 2.432164
9.6265144 -2.8864517 2.3640642
10.32021 -7.282136 3.401787
9.2596664 -3.4227719 2.5669906
9.4938469 -8.1630754 0.90412974
8.4922562 -7.86479 2.7844162
10.670081 -6.5959468 2.1479676
7.9533834 -5.0751972 1.9576784
9.2225704 -7.7675872 3.4002042
10.227536 -4.9637561 2.1397815
9.0476675 -7.8452721 1.1758463
7.9274597 -4.8063641 2.4687948
9.6477556 -5.4179029 1.095432
8.969615 -8.4932022 0.93675286
10.032507 -8.0687847 1.3143594
9.6872883 -7.8536344 2.0359015
9.325058 -0.88048011 3.3034899
9.6541977 -8.1687469 0.9533447
7.8173046 -5.6979723 2.1053519
9.2875881 -2.0079846 2.864712
10.093243 -7.3573165 1.6897852
10.439418 -5.5462031 2.9653692
7.6993971 -7.6440091 2.6972146
8.9937878 -7.9827447 2.0498166
10.637337 -7.883584 2.8186314
8.9580774 -8.0219088 0.88455051
10.340361 -7.7142763 2.7794428
10.365778 -5.0627151 1.7939534
9.7711468 -3.4227719 2.5347338
10.076504 -7.7565522 3.0623584
8.856348 -5.595346 1.0349818
9.5960636 -5.9698877 3.7462659
9.8967094 -3.9998884 2.9160938
8.0057468 -7.788384 2.8036733
9.1233349 -1.3398708 2.9421873
8.8343353 -8.8794241 3.4487491
7.9284048 -8.316927 2.0968678
8.1710396 -7.9942126 1.4708493
9.3692017 -4.9637556 1.2374184
9.5580397 -4.9637561 1.4633777
9.3368721 -1.3290843 3.1608729
10.594292 -7.6837082 1.7647648
9.3771152 -7.357336 3.0042765
8.5371647 -7.9733047 3.7250028
7.682313 -6.9504633 2.5014076
9.9543495 -3.8539808 2.7798452
8.5163355 -7.7704344 2.4440315
8.7071075 -3.5713794 3.028585
8.9116325 -2.4172096 3.5177703
9.3056259 -3.1510084 1.6968344
9.7514315 -7.916399 1.1058949
8.474143 -5.8629551 3.5973845
8.4636946 -7.647378 2.9228537
8.0037136 -7.2574368 1.433089
8.9321079 -5.3278065 3.136631
9.9956379 -8.2129679 1.115989
8.3598909 -8.1814232 1.3397899
10.512377 -7.5009027 2.8516371
8.1543159 -5.3539615 3.2336116
9.5034256 -7.3309474 1.0067991
9.1592245 -7.9008141 0.85948658
8.9931993 -8.6874666 3.7482455
8.9659262 -2.5463214 2.1147821
8.3321619 -7.2595639 1.1194328
9.1681814 -3.4227719 3.0312171
7.9366636 -5.4406743 1.8431929
8.1124763 -8.9333858 2.948355
9.2625732 -4.9637561 3.3336301
9.4739857 -7.8145275 1.6266928
9.6779118 -7.6349049 1.9768231
9.0726013 -1.5394679 2.9321613
9.0889988 -7.6416435 1.9768518
7.7925286 -7.5557427 2.9849267
8.4932079 -7.8081698 2.92067
10.077511 -4.1010866 2.1837194
10.05826 -4.9637561 2.4101036
9.0393448 -7.8640661 2.7152271
9.714488 -4.7372875 1.2213278
10.376253 -7.0735493 1.425223
9.1452942 -7.6459236 3.2033236
9.4106779 -7.8052526 3.2981839
9.612277 -6.6579266 0.939592
9.591938 -3.9809289 1.5911498
10.582494 -7.7165093 2.1826446
8.2197447 -7.1228261 1.2133189
8.1930199 -8.1342287 3.2390666
10.106547 -8.7736778 3.3811927
7.7790685 -6.0862522 2.0887365
10.652014 -7.1028571 1.9529589
10.016911 -3.918262 2.665395
9.7595091 -7.3573179 1.5450835
8.391366 -7.6143274 1.080107
9.4189091 -4.162509 3.1614327
10.048045 -5.1194596 1.3743315
8.9198761 -4.7053595 3.7608123
9.2207394 -3.7612062 3.2234769
10.115203 -5.8798904 1.3007495
9.7708149 -3.668227 1.7792206
9.6056442 -7.357338 1.9415226
9.8375645 -7.3709555 3.6206167
10.569426 -7.8698235 2.5380721
7.9645514 -8.4929123 1.6067976
9.049202 -0.52882695 3.5323749
9.2644606 -3.6874163 1.5490166
7.7624874 -6.0443649 2.4690928
10.379884 -8.8836918 2.1871421
10.129526 -7.8250914 1.7160451
9.4427137 -7.7105098 3.7488084
9.2715721 -0.3159937 3.3005691
8.9304733 -2.5727649 3.4149129
8.5085478 -6.1537986 1.1056225
9.918644 -8.3341875 3.6380043
10.464579 -5.2658563 1.9618371
8.0153484 -8.1434898 3.2823317
9.6219692 -7.8257647 1.041751
9.3778534 -3.5309243 3.0037258
10.272928 -4.5283136 2.1860418
8.6286783 -7.9828992 3.6070464
9.0494938 -0.19625995 3.7488155
9.9063292 -7.7578201 1.0343528
10.505606 -6.5621367 3.0804703
9.6107903 -5.5553765 1.064528
8.8605366 -2.6895943 2.5664535
8.3882608 -4.4729781 1.6677084
9.0082026 -3.0988927 1.7245785
9.2458925 -7.6161695 2.512413
8.9451904 -7.3573222 1.5029924
8.1980343 -8.236083 1.2723197
8.9865274 -2.1132278 3.1530292
8.1328936 -8.6938515 1.4629188
9.9754419 -4.9637561 1.7563019
8.3800135 -7.904108 3.4814291
8.6402969 -7.357316 1.3892245
8.6421385 -6.1917152 1.03093
9.4098434 -8.2211828 3.657763
9.9993916 -8.9062042 3.2041776
9.1731567 -2.0168066 2.1602395
8.0576715 -4.6224589 2.8842163
7.9799533 -7.6024199 3.2986534
9.2588215 -2.2706115 2.1040204
7.8160124 -5.9735951 2.0072734
8.603159 -5.9297051 3.674186
10.236163 -8.5214424 2.9775951
10.647324 -6.4845729 2.68504
10.566353 -6.6247954 2.9806619
7.8012743 -8.5050011 2.7278731
7.799139 -7.4289217 2.2501731
10.302428 -8.7951508 1.9711273
8.8949604 -5.3590503 1.0571077
8.3933678 -8.2277908 1.1178923
7.9897866 -5.7097521 3.0915155
10.431175 -7.9690542 1.7853442
9.0451908 -2.7975056 2.8593535
8.6972704 -7.357336 2.7799954
9.7150211 -8.5319862 3.4497733
10.080341 -4.888824 1.4420228
9.6934357 -7.3573184 3.2370725
8.8554182 -8.0272503 2.3883243
10.346154 -5.1652865 3.0226917
9.5161266 -8.8073931 1.0712562
8.6757774 -5.2944679 3.6173091
9.3056984 -0.21857239 3.5517578
10.319242 -6.4320354 1.4248203
9.016819 -3.141047 2.9964514
8.6732397 -5.7725368 1.067019
7.8845277 -5.1124935 2.4791608
9.3645983 -8.1144848 0.88351405
9.1109934 -0.91386753 3.0062206
9.7304974 -8.26367 3.5512338
8.3270206 -7.9639754 1.136009
9.2686672 -7.357316 3.5784795
9.0903339 -7.3573313 3.1130579
9.1925621 -3.4227719 2.179112
10.485798 -8.3992748 1.694206
10.274315 -5.6102653 3.2438016
9.7458858 -4.2350597 3.1206565
8.6492701 -7.7984147 2.0390816
8.7669334 -2.9038999 2.4700365
8.593401 -7.5144958 3.6387916
10.034248 -7.3573213 2.8040931
8.8270111 -7.8266225 2.8244429
9.5400143 -6.8819132 0.89826387
10.6402 -7.4032793 1.9043857
7.9633608 -8.0031204 3.2376626
9.0987682 -4.121141 1.4779643
8.2580185 -8.8564281 1.4587756
10.278109 -7.357316 1.6200122
9.6331539 -5.2904186 1.1092576
9.4176407 -5.7149382 0.99353111
7.917119 -7.7345634 2.2101703
9.9452057 -8.5627613 1.4400917
8.4129553 -6.2782078 1.1420729
8.6629715 -7.6777973 2.9530618
8.9414005 -4.2828918 3.561913
8.045846 -5.00246 2.9789233
7.8846836 -8.2284479 1.6788299
9.3909206 -1.6824214 3.3041811
9.7963696 -7.6875691 2.7425375
8.418541 -7.8464751 1.3686533
9.1074123 -7.9875178 2.6992481
8.7321062 -5.5434141 1.0801132
7.8575497 -7.6599922 2.7836304
10.059416 -4.6787562 1.4623673
10.023038 -7.6962028 3.3105135
8.8543491 -3.2563968 2.998672
10.584688 -7.4437551 2.5466294
8.0925989 -7.2810402 3.4312153
8.0153389 -7.357316 1.7158716
9.9163647 -4.1576729 1.8215516
9.381134 -7.876163 2.7975674
8.9622173 -8.2195702 1.0663017
9.7668552 -2.9830797 2.2189927
9.1452122 -3.4227719 2.8510485
8.3817263 -7.3573165 1.7425917
9.0079021 -7.623786 2.306819
8.3530846 -3.7983906 2.512903
8.2964249 -6.2675934 3.5258973
10.236114 -8.7542114 3.258805
8.2395067 -4.9637561 3.0885258
9.080965 -3.9016209 3.2387242
8.2270517 -5.3926835 1.4208845
9.6455193 -7.8603487 3.3272445
9.1824579 -7.4589558 0.96755141
8.9586773 -3.4042645 3.6427081
7.8092427 -7.307622 2.146204
9.9610367 -7.6396871 2.5218763
9.8191586 -7.7257972 3.1107924
10.314757 -5.742671 1.532259
7.7232323 -6.3580985 2.3525822
10.249565 -7.7067461 3.066761
10.29545 -8.7140207 2.7167025
9.1403389 -1.7281299 2.2395716
9.7822084 -6.7614632 3.7739356
8.582428 -4.7857294 1.2628245
9.9312658 -7.9153461 1.0559608
9.1548491 -5.129231 1.0559492
8.1379471 -7.7996464 2.1338086
10.342806 -7.7302713 2.457067
9.8769245 -4.9637561 2.0395081
7.9164996 -4.9907608 2.1213644
8.6106462 -5.6526914 3.6423008
9.3016024 -7.6729336 1.6297786
9.206706 -4.9637561 3.6062791
8.9441833 -3.8494725 3.7342117
8.4204483 -4.9637556 2.270709
8.4553814 -8.2452831 3.6466591
9.3664932 -1.3606632 3.3160768
9.1838741 -1.0392399 2.9770486
7.766242 -6.2942386 2.0565705
9.7999105 -7.8499475 2.7712934
9.868063 -6.8422041 3.7364988
10.459037 -8.3760929 2.4252973
9.3046741 -7.7239408 3.2946026
7.9862227 -8.4685621 2.6079922
8.928092 -5.1907115 3.515229
8.5983543 -3.0181861 2.6724336
7.9216261 -7.4660096 2.9634295
10.010515 -5.2706161 1.316541
7.7652864 -7.7863903 2.890573
8.8389711 -8.5082846 3.7577071
9.9880009 -3.749248 2.6624265
8.2894163 -7.3573198 2.0330107
9.9968491 -7.1968961 1.0842738
10.08414 -4.2649865 2.1102865
8.9375286 -2.2600832 2.4874959
9.9836407 -7.3573289 2.3425612
7.9663157 -4.882761 2.0083423
8.2610722 -7.7493124 1.1764123
8.3594904 -5.5563183 3.4730651
10.117649 -5.3553047 1.3893306
9.2456779 -5.0746264 3.6838906
9.1003284 0.16796166 3.7051959
8.4469128 -3.44556 2.1172314
8.8131161 -6.6093454 0.93371862
8.6348381 -7.7942877 1.2568214
10.104362 -7.7492456 1.1574204
9.1221294 -0.50502455 3.1427901
10.587543 -7.3318815 2.2292185
9.2523432 -7.8209963 0.85826015
8.434454 -8.8646364 3.4534369
8.862443 -8.6457481 3.4706769
8.8831692 -4.9637556 1.5224937
8.5312281 -4.6302824 1.4646181
10.266338 -8.3553104 3.3622282
8.9033871 -7.7908769 3.1705899
8.1760759 -7.9412584 3.2855387
8.0532598 -6.9207072 3.3780243
10.22891 -4.9637561 2.3441582
8.2423687 -7.8517733 2.631355
9.4482288 -1.6458454 3.6506581
8.1152868 -7.3573155 1.4991415
8.3788357 -4.6636186 1.5779366
9.4622278 -5.2145681 3.7467499
9.1972008 -7.7892513 1.4498529
10.220037 -4.9143124 3.1499352
8.2495871 -7.6856079 2.6724534
10.086307 -7.9323506 1.3240361
7.7809787 -6.0450354 2.6575286
7.9862881 -8.3986788 2.021348
8.9098215 -1.7272538 3.7662554
9.2852688 -1.8352499 2.5267155
8.4326849 -4.9637556 1.4227473
8.9337339 -7.371459 0.87539542
8.8979177 -7.3573456 2.0348334
10.153871 -8.6868038 1.6770718
10.694628 -7.7386112 2.0991426
10.23284 -8.3044014 1.5935867
8.6101742 -4.384902 1.5067815
9.3520947 -8.1499987 1.0456939
9.6133156 -7.8512936 3.1894481
8.9511576 -4.2629657 3.4177165
10.173349 -8.6388311 3.3877926
7.7192283 -7.0267577 2.7428949
7.9563055 -8.4577036 2.3440008
9.0269957 -7.6606655 0.86351579
10.686284 -8.1044312 2.2600286
9.8945818 -3.2216368 2.3311276
8.1000881 -7.6614618 2.7400374
8.3577404 -7.3573256 2.4944835
9.6285982 -4.9637561 3.5537603
9.6633615 -3.4227719 2.3279777
9.1104565 -0.1694957 3.4276476
10.069229 -7.7199593 3.6273623
10.011595 -7.357316 3.1008255
9.4417706 -3.4227719 1.6462995
10.459049 -6.9047832 3.2270551
10.547121 -7.8468351 1.6955515
7.8481774 -8.5809155 1.895988
7.6938291 -7.7496819 2.1082547
7.7669716 -7.1669474 1.8508449
9.8076925 -4.7777085 3.4803736
9.714653 -3.5366468 2.993804
8.7710886 -7.714026 1.2099406
10.594074 -5.7459407 2.4784222
8.0987101 -5.7576404 1.4995441
8.4135284 -4.9637561 3.0115321
8.8565245 -7.9538789 1.0402685
10.481164 -6.7537603 3.1684041
7.7487607 -7.497602 2.8552814
8.855711 -3.413372 3.0874646
7.8847303 -5.7112536 1.8756413
7.9979491 -8.5206938 2.2006454
8.6927195 -4.3203754 1.5817645
10.114634 -4.9637561 1.7735562
8.4519215 -6.9915257 1.0542992
8.9739523 -1.179633 3.6464491
7.8431234 -5.3371434 2.3863273
9.7570591 -8.3114958 1.2059066
9.4417372 -4.8649931 3.0571961
8.360384 -7.8041353 3.3198297
9.7794123 -6.3832407 3.7308671
9.0109205 -1.3913434 3.3429012
9.6593876 -4.3203864 1.5622387
10.187284 -8.4302769 1.614958
9.5379105 -7.3573174 1.4265711
8.2118149 -4.6731396 2.9602056
8.9421911 -2.3686178 2.20469
7.8795109 -5.9077864 1.8260132
9.8879824 -8.6640358 1.146493
10.276155 -7.7180867 3.4575539
9.3473911 -8.1997442 2.3457556
7.9616041 -8.359767 3.1580343
9.0806961 -1.9441853 2.2112415
8.7850838 -5.1114531 3.6230264
8.4426575 -5.033061 1.30601
10.025134 -6.6627164 1.1232061
8.5453444 -4.6549716 3.3134089
9.8803396 -3.8623667 2.8994594
8.514904 -3.3229864 2.6181269
9.8097334 -8.6342239 3.6412888
8.6404076 -8.4139862 3.4870069
9.6444979 -6.0980654 3.7454877
8.9390984 -5.102766 3.2109609
8.8158302 -2.9808731 1.9540789
8.5086966 -6.7902918 1.0305569
10.501078 -8.012394 2.0035117
9.5423336 -3.1760101 2.9778061
9.1081486 -3.5954084 3.1894779
8.597683 -8.484704 3.6790776
9.0779476 -8.2845325 3.6530905
9.8222046 -8.1859789 3.5217836
10.235924 -5.4658699 3.2573853
8.6410551 -8.8112984 3.6020677
7.9361067 -8.0516768 2.8588121
8.1324911 -6.4585886 1.3435752
9.3225222 -7.9263268 0.99994689
10.631764 -8.4459314 2.5447512
9.0465307 -7.3573275 1.573029
9.7131367 -7.3573294 1.803411
9.4046574 -3.2667742 3.3761508
8.7648487 -5.8642793 1.0292637
8.2822218 -5.8406825 1.2988079
9.8245792 -8.8263206 1.2053245
9.9729548 -7.6751308 1.3754276
7.8016725 -6.6924348 2.9570131
8.813055 -7.3573384 1.9328245
9.5699711 -7.8640881 1.5295463
9.4432774 -1.354484 3.753022
9.5289898 -4.9637561 1.2609069
7.8037372 -7.5584879 2.5369935
10.696185 -6.8002787 2.1964259
9.3833141 -5.5851259 1.0079969
10.371726 -4.9637561 2.162616
7.920423 -6.7510052 3.1920764
8.3337955 -7.7326632 2.2699721
9.6474886 -3.3957348 3.0181684
8.8952904 -2.2527521 3.612196
8.2484741 -4.9637561 1.7804197
9.8276768 -7.357336 2.2480097
8.5327702 -4.9637561 2.134032
8.5136013 -4.9637561 3.1813283
10.248167 -7.7314973 2.1035757
8.8432474 -6.8620601 0.90008348
9.4211092 -4.4688158 2.965673
8.082386 -8.2061119 1.385814
9.9252605 -5.796073 1.171924
9.9549723 -7.707552 2.1507809
8.9604607 -5.0135412 1.09101
8.9521246 -3.9873779 3.5796871
10.494833 -7.1734529 3.1668644
7.8313503 -6.276473 2.9073896
8.5439444 -7.3573332 2.1150208
8.3666935 -7.6560631 3.5000238
9.2687731 -2.4009609 2.073699
10.025968 -8.3413219 3.5757637
8.9464407 -5.0297041 3.0297801
10.450283 -6.1111345 1.6710942
10.098835 -4.1045084 2.3974924
8.4846172 -7.5285754 1.0311692
9.391964 -3.1503179 3.2497184
8.9216204 -2.7000461 3.4985752
7.6901336 -6.8642526 2.1830125
9.1520844 -5.2332449 3.7083492
9.3014936 -2.1329291 2.8502235
9.0257387 -1.8208529 2.4073019
9.9241114 -3.3935325 2.6662209
8.4856606 -7.2448697 1.033602
10.550529 -7.9154611 2.108829
8.869072 -8.7944355 1.2020158
8.0281048 -8.0231266 3.0535562
9.7652836 -4.3721461 3.1346648
9.9753971 -7.663168 2.3173585
9.436739 -4.7318997 3.0597403
10.620497 -8.6005125 2.3369248
8.4865322 -7.5942364 3.5792041
7.7327967 -6.5065298 2.6575229
9.8324852 -8.7210312 1.3633378
8.48176 -8.4994459 1.3781812
9.3416719 -6.4271994 0.91155058
9.5576105 -7.6351218 2.9941084
9.9591408 -8.1958857 1.286689
8.5954361 -4.4897733 3.2814641
10.255204 -5.6164603 1.4860044
10.307867 -8.0169554 3.3790648
7.8313818 -5.83109 2.0076213
9.2981501 -8.8410816 1.0890049
8.9740829 -4.0371962 3.2852073
7.8834858 -5.9500079 2.9464149
9.3728428 -4.9637561 3.4003606
8.4988146 -7.6434989 1.9548414
8.2411308 -4.401329 2.4144576
9.5090685 -7.3573427 2.78759
8.8437729 -7.7992077 1.7068048
8.6528959 -6.5691891 3.7689826
8.2218437 -8.0919561 3.504847
9.8698254 -3.2300916 2.5728128
10.365603 -5.4490509 3.0735552
9.3944731 -7.7313256 1.5228047
7.7404485 -6.8076196 1.9578273
8.5563288 -8.2483244 1.0341903
9.4110918 -4.407166 2.8339496
10.14908 -5.3993545 3.3448534
8.5208721 -7.8620057 1.9000984
9.4499073 -3.9696965 3.7303715
8.958271 -2.5534127 2.6368413
10.217902 -7.1056705 1.2537444
8.9899502 -2.3859916 2.6098275
10.160748 -4.9637561 2.7879863
10.423894 -4.9650884 2.7737384
9.087965 -4.9637561 3.5122809
9.627841 -5.5056839 3.6764777
8.1368132 -6.9283781 3.4719448
7.6877799 -7.2272582 2.1726177
10.503839 -5.5990191 1.9297589
9.1577463 -1.8447124 2.2044635
8.8471556 -5.8887367 3.7540209
9.5290422 -4.9637561 2.7188785
7.9685383 -5.6128736 1.7325147
9.4743395 -7.7222037 2.4221358
7.8839555 -7.8684168 2.820837
9.4627447 -4.5151172 3.6520376
9.9108067 -4.2958064 2.977648
8.6770954 -4.5003881 1.4264907
8.1854992 -6.7847281 3.5043619
9.530983 -2.7546878 2.5948446
9.7671852 -3.085412 2.7415752
10.259143 -6.6438603 1.3168881
9.3204184 -7.9935408 2.6861157
9.2920351 -4.9637561 2.882585
7.7202153 -8.3141594 2.3571651
9.7875776 -6.2708235 1.0424004
9.5084782 -3.4227719 2.8254642
9.1262989 -0.35944647 3.2150788
9.5150146 -2.1998386 3.7722108
9.7763262 -4.3580093 1.6331387
10.669064 -6.7080278 2.0623107
10.223926 -6.9098539 3.4946229
9.5690479 -7.1194372 0.90477163
9.3972778 -2.626744 2.0691583
10.635302 -7.9415855 1.9327091
9.131218 -5.833528 0.96523356
8.2445507 -4.9637561 2.0230546
8.2884216 -8.8343983 3.3538313
7.8168936 -8.7474461 2.300446
10.053563 -6.8709946 1.1216968
9.8439674 -3.5909367 1.8840835
10.23817 -7.7664967 2.8527265
8.6856766 -3.3210204 2.8912578
7.792449 -8.2579556 1.9060267
10.424631 -6.3612809 3.1876645
10.603783 -7.8301878 2.9437151
9.4432278 -4.708868 3.1868525
9.2971935 -0.31720328 3.4421582
10.692622 -7.9721699 2.2365689
8.272934 -4.1999674 2.3650455
8.3143883 -7.6996889 2.8951781
7.7684464 -6.894361 2.9009523
9.2211761 -6.9784689 0.85603654
8.1633444 -4.821166 3.1221223
10.097515 -8.8698111 3.0840538
7.9840856 -6.3552399 1.5413413
9.1987076 -8.6987257 0.96589941
9.4519386 -2.5100975 3.5853446
10.4457 -7.800663 2.6476979
9.0224686 -3.2295835 2.9068439
8.8830442 -2.4924202 2.505851
7.9823742 -8.0395079 1.4815642
9.8728924 -6.1760159 1.0991751
9.4167213 -3.3864696 3.4944568
8.9752598 -3.4227719 2.9092197
10.010837 -7.8666668 2.3910825
8.6197472 -7.7684689 2.8437228
8.4987555 -6.2677689 3.6582174
9.4162455 -3.4227719 2.1641345
9.3644629 -3.1848555 2.9164858
10.596101 -6.9253883 2.9725678
10.186894 -8.8983002 2.9902964
9.5613899 -3.9424467 3.1734853
9.9965076 -3.5020401 2.39904
9.4607439 -4.6563058 3.5235562
10.694651 -7.2727246 2.1051254
8.9930449 -8.6866503 0.98200864
8.0639086 -7.7666192 3.1938589
9.6765146 -7.3573413 2.6281061
8.3925552 -4.9637561 3.2595198
10.554603 -5.9037733 1.9728396
9.0738106 -1.9890831 2.5529754
9.8331337 -8.0638542 3.5472081
10.334593 -7.6841192 2.0154908
8.0611458 -5.3728304 1.6304045
10.211454 -5.8497295 3.3668106
10.411074 -5.351099 1.7932048
8.9695539 -3.2912993 3.5315812
8.8958855 -7.3573365 1.815902
9.4213276 -7.3109632 3.7631161
9.5583687 -3.4227719 2.0565975
10.701969 -6.842021 2.5353293
8.8146191 -4.4581747 3.3793325
10.175845 -7.7413306 2.7030029
9.3412781 -1.0569373 3.3149211
9.5628796 -7.8508854 1.9199091
8.8794022 -4.0789003 1.5351965
9.4443913 -8.7011623 3.4805019
7.8812923 -5.2425337 2.6358242
8.577323 -8.3294153 3.6966531
10.523726 -7.9690309 3.0749555
7.7725463 -7.6878576 1.8157883
9.5057669 -7.3573484 2.6190801
9.8783741 -5.0769043 3.4925425
9.35637 -2.5357485 2.8478494
9.278657 -3.9979987 3.2579226
9.3240776 -0.47636294 3.4909201
8.5332394 -4.0588646 2.9821327
9.0527439 -1.4690043 3.074863
9.6320753 -8.2462177 1.128788
9.6753378 -4.9637561 1.3022554
8.8412971 -7.7527103 1.3862122
8.7250214 -4.9637561 3.2574401
10.205817 -4.3809738 2.1207478
8.7474899 -7.7112298 2.7941082
9.4675064 -2.3712356 2.5145252
8.9196005 -4.3961725 1.4670421
8.1643839 -7.4153986 3.500401
8.3432217 -4.9637556 2.3651161
8.0711031 -7.8355794 2.9789414
9.4549217 -5.3620353 3.0959716
9.6256504 -8.9130859 3.4377761
10.142582 -8.3924561 3.4687221
8.7477951 -7.357316 3.5833614
8.6731424 -8.1431389 3.7678404
9.6860437 -3.1891508 1.8815598
8.3431396 -5.4319267 1.3164362
8.7234297 -8.5200176 1.2482791
9.1078959 -7.8665247 3.7516384
9.4798326 -7.6185322 2.1712012
8.9546671 -4.4440088 3.1925864
9.3769073 -7.6392612 3.1458573
9.3860321 -8.6086693 0.9616133
8.5534945 -6.6777029 1.0198681
10.215283 -8.311305 1.3050822
9.8863068 -7.8230653 3.7217593
7.7822323 -5.9494143 2.1867552
9.0118237 -2.9112179 2.9611456
9.5573044 -7.357316 3.4837208
8.6957464 -7.6670179 1.333977
8.9606819 -4.3153133 3.1909375
9.6124535 -8.1031637 3.6328633
10.676701 -6.5571098 2.4993248
7.9710999 -7.7920065 2.085155
9.4374304 -3.4202988 3.7373974
8.0576572 -6.7447877 1.3878878
9.0384598 -1.691517 3.052012
10.454417 -6.2416048 3.1055856
7.9473209 -5.8008785 1.7227092
10.224939 -8.7021313 1.4296947
8.3048267 -6.299612 1.2185847
10.208134 -7.7821565 1.2446806
8.1085434 -7.6880484 1.4842751
9.2499294 -4.4052277 3.4282119
7.8273888 -7.892004 2.1663995
8.9028873 -4.9637561 1.3761902
8.9128017 -3.1772478 1.7420559
7.859478 -7.4683905 1.9492517
7.8031039 -6.1488485 2.7685952
9.8104153 -7.7206688 1.6799691
9.5460835 -4.9637561 1.633215
9.9789562 -7.357316 3.4740195
7.7253695 -6.4097514 2.4795175
10.678424 -7.9670749 2.0898108
9.1204453 -8.2005386 2.4913948
9.4578447 -4.34409 3.6714535
9.2218838 -4.603497 3.4980967
8.9425354 -2.2939095 3.3381016
10.565674 -8.7662277 2.2972274
9.2500057 -0.50598514 3.0620532
9.0275259 -7.6825891 1.1178371
9.3372755 -4.9637561 3.5282507
9.1358995 -4.8673515 3.6523926
9.3778772 -2.4916954 3.0740166
8.2707014 -7.5102024 1.3187727
7.8540325 -8.8084526 2.5211544
9.0354385 -2.4011855 2.8419356
7.84935 -7.4608917 1.6662713
10.211391 -6.5723252 3.4690392
9.9995117 -6.2850614 1.1540024
8.9891281 -4.9637561 1.8480771
8.5961056 -4.9637561 2.790153
8.316925 -6.7725677 1.1450971
7.9588976 -8.4769611 3.1147006
10.212185 -7.3573165 2.1528525
10.176442 -7.8409381 3.3614626
10.454074 -7.8095284 3.2284446
10.661271 -7.8373313 1.9961753
10.346931 -8.6598825 2.511498
8.2643337 -4.4344501 1.8678027
8.3980703 -7.357316 1.4909525
10.276848 -6.1892362 3.3427231
10.066532 -7.9700732 3.6011028
9.9599743 -7.357316 3.6023412
9.4420166 -3.0869281 3.0101228
9.2878475 -0.67370331 3.1871758
9.6089268 -7.357347 2.4814377
10.628697 -7.5178518 1.8627969
8.8002396 -6.4420128 0.95579612
7.8644695 -8.1360464 2.4183643
10.465055 -7.3094425 2.9724998
10.039083 -4.9637566 2.2274833
9.1236887 0.32004577 3.6751206
8.1144133 -4.6341715 2.0522664
10.063615 -7.9152365 3.4329994
9.3330669 -7.7650461 2.7037449
8.2481461 -8.7081261 1.660727
9.7807751 -3.8425348 3.0063229
10.483168 -8.3125181 2.2826486
8.5044069 -8.498702 1.0981191
9.0450516 -7.0859027 0.86709011
8.1421394 -6.6785984 1.3011423
9.0686817 -1.3142769 3.0573764
8.7572002 -7.9113665 3.6725037
7.7776175 -7.9680424 2.8840733
8.9936857 -2.6979194 3.0583258
8.8530016 -7.8812699 2.6901155
9.9032555 -7.7493114 2.6642151
8.8888149 -8.5421638 1.2047774
8.4615479 -4.8752804 1.318689
10.106012 -7.3077307 3.4420037
10.16732 -7.8634772 3.5304298
9.7990294 -6.2174463 3.700851
8.3326931 -4.9637561 2.858284
9.5332842 -4.9637561 2.0485194
8.0909958 -6.5521212 3.3768351
9.5786495 -7.8757191 2.8549833
9.0891609 -1.0932847 3.0451045
9.2862263 -7.3573346 1.7177651
8.167346 -8.7871609 1.7828544
9.0272017 -4.2466588 3.2919359
9.4621239 -5.0258789 1.0952562
8.7712708 -4.4373651 3.2382624
8.6122084 -4.9637566 2.9271331
8.8139887 -8.461216 0.96800971
10.549194 -7.4442029 2.01563
10.520662 -7.4184942 3.1233864
9.1083727 -4.9637561 1.3336997
9.8638783 -4.9637561 2.8307805
7.8141742 -7.8449097 2.5396259
9.2563086 -7.2613869 0.85686016
8.0037794 -5.8932772 3.1589494
8.79811 -4.6437073 1.3160073
7.9983301 -7.7203908 1.6352808
9.6115227 -7.3573155 1.1010835
10.365014 -5.6087627 3.1237602
9.4009161 -7.357316 1.1121218
8.3881855 -7.6790175 3.3408365
8.7902603 -2.7957182 2.3048453
8.2930632 -7.8357911 2.1431639
9.4377499 -4.4295263 3.278477
9.0922661 -7.3573418 1.8503095
9.2662621 -0.46094027 3.1794379
8.9317207 -5.9024553 0.9776901
7.8482351 -8.4655848 2.9067822
7.7542334 -8.4945688 2.4393356
7.9035006 -5.411387 2.7931352
9.3282366 -0.64013737 3.4262545
10.530629 -8.7633228 2.6734555
8.2562475 -7.7791047 3.5688219
8.5700541 -7.6261029 1.1155697
8.0155859 -7.4211874 1.6085911
8.5157795 -7.7466669 3.0370078
10.694689 -7.4000444 2.0934248
9.7928953 -7.642477 1.5241756
9.2453594 -8.2056332 3.6776233
9.5364714 -2.93575 1.8242875
10.612111 -5.9584246 2.2351651
7.6029277 -0.45736277 3.7664013
9.0531425 -2.9732735 1.9221187
9.980731 -3.8577747 2.0238004
7.8661299 -6.9857206 1.6442342
8.0563164 -7.1351056 3.3848796
9.4563437 -7.7182136 3.0349658
9.2516384 -3.1286564 3.0600677
9.2908802 -7.6846952 1.4286695
7.9208641 -7.5021238 1.531678
9.3831234 -7.7377658 2.5676889
10.689909 -6.7013497 2.5180955
9.6978302 -7.4885874 0.94026232
8.3542252 -5.9386148 1.2265608
8.0643139 -6.2397838 1.4624925
8.7622271 -7.8480058 2.5003619
9.9858894 -7.0757127 1.0796912
10.480123 -5.086813 2.0999074
8.3789005 -3.5974638 2.4290655
9.1506968 -3.5784993 1.5648792
9.7945585 -4.9637556 1.7696753
8.383131 -7.4241734 1.086514
8.9374533 -3.9925001 3.7594128
10.688296 -7.4779654 2.6951017
10.524259 -7.7872005 3.1051073
8.170475 -5.6763701 1.4277469
7.7639294 -7.0320964 2.8904481
7.7341247 -6.7512312 2.7568038
8.5808067 -7.6395483 1.7357904
10.4112 -8.6387911 3.0836535
10.0881 -7.3573189 1.9661099
8.6989689 -7.357316 3.4483104
9.036088 -7.8237271 2.0954099
7.8980017 -7.4187555 3.1795633
7.8472075 -7.249083 3.0811989
10.623837 -8.1829405 1.9613132
8.9472933 -1.61131 3.6041489
8.7550154 -8.7686901 1.0772678
9.3950539 -8.727643 0.99821949
8.3186932 -4.4078493 1.9937685
10.500378 -8.2269106 3.0627964
9.0500641 -7.6467037 1.5845276
10.094395 -7.1227331 1.1521845
10.600092 -7.3815155 2.3943698
9.79175 -3.6883602 2.9611089
7.8428497 -5.9132738 2.8152838
10.253525 -5.9312882 1.4267483
9.9108753 -3.9358451 1.8738649
9.0197525 -3.4227719 2.2498572
8.9028921 -2.8884013 2.6974363
10.646204 -8.2952461 2.1168013
8.4673815 -4.9637561 2.6130233
8.8419838 -7.3452058 3.7338123
8.4190435 -8.5640144 1.4603412
8.3963976 -3.6387372 2.5842302
8.8930645 -5.583775 3.7286558
9.7482014 -4.4959793 1.4477764
8.7146282 -6.8609505 0.9391039
10.659546 -8.1451797 2.6756506
10.143293 -7.8294616 2.9245715
8.6321659 -3.3169627 1.9297347
9.3913231 -1.4907566 3.3971615
9.9679241 -8.706913 1.471469
9.0749931 -0.10570218 3.6665173
9.0738869 -7.7004452 3.290746
9.9863949 -6.187067 3.5971479
8.4025497 -8.8374538 3.1895158
9.0948114 -1.2147315 2.9579272
9.4621916 -7.3573351 1.7682487
10.198077 -6.7285252 1.254698
8.4929686 -7.6889992 3.7306511
8.768856 -8.6240644 1.0189425
8.6926174 -8.3174257 1.1764323
10.632446 -8.5076113 2.4395523
9.9172678 -8.8043585 1.4030159
9.6345329 -7.7028122 2.4460928
9.2280865 -7.3573437 1.8920991
10.702241 -7.369545 2.5826445
8.9642334 -7.6982613 2.8823299
9.2870369 -7.7275047 2.2462358
9.3886576 -3.5979261 3.1179812
8.925499 -7.7839026 2.0172424
8.2549229 -8.0552015 1.3935955
9.275013 0.11953534 3.5949912
10.539609 -6.7254457 3.0528548
8.0973358 -8.7098522 1.9513016
9.7320557 -4.9637561 3.3970778
9.1115093 -5.0268526 3.6736875
9.4284554 -3.2293913 1.7143316
8.5317354 -7.0762043 1.010736
8.1717701 -7.6529841 3.329021
9.6551819 -7.357316 3.6168907
10.02037 -6.04353 1.2009345
9.0175114 -0.70845985 3.6199663
9.4315348 -1.9804819 3.3964753
8.0860205 -7.5277891 3.2286067
9.2229347 -1.4404867 2.9305196
9.324564 -1.4375865 3.0388527
9.3369331 -1.7037333 2.984005
8.544138 -8.2171602 3.5016568
10.530918 -8.8121424 2.5433917
7.6911669 -7.8683658 2.2143073
8.2959309 -4.0867319 2.3265276
10.623802 -6.1414585 2.5958185
9.4742632 -7.7637663 1.8817236
9.3185043 -8.9174204 3.6448431
9.7827415 -5.795783 3.6598735
7.8607082 -7.7323112 3.1077375
10.65423 -8.3805676 2.4056549
9.7859077 -2.9827683 2.3934393
8.9616365 -2.0892475 2.3306823
9.6142941 -3.5307953 3.0664365
7.7007337 -7.29317 2.0652385
9.4445839 -3.4227719 2.6006925
8.0187836 -5.6697984 1.6216342
8.0804806 -5.2305012 3.1138296
10.01354 -3.6787257 2.2253604
9.6232443 -8.7466927 3.6710637
10.306793 -4.6536202 2.1371684
10.668671 -6.9439173 2.7426949
10.586987 -8.6333933 2.6303637
10.164484 -5.5902829 3.3684251
8.5128193 -3.1502366 2.2730823
9.7068701 -3.4227719 1.9813821
8.3603611 -7.357316 1.3605921
10.660173 -6.3482914 2.3098938
8.7450542 -4.1543002 1.5855743
8.1329441 -7.5964918 3.4767675
9.9298344 -7.6637764 1.805354
9.9369335 -8.8216372 1.2635609
9.0042791 -8.1654053 2.2488112
8.4079762 -3.504149 2.5441506
8.1257534 -4.4962697 2.1938975
9.3396635 -7.6674695 1.1037791
9.6626949 -7.2998309 0.93143189
10.443285 -7.8378839 2.0574555
7.901298 -6.1436548 3.0224216
8.3556013 -8.3602295 3.3224382
10.382557 -6.2333488 3.2211261
7.7782855 -6.5998654 1.9074593
9.0203896 -8.1068373 2.1334791
8.8110561 -5.0481615 1.1270773
7.9906445 -8.1838579 2.9079201
10.517885 -6.8046322 1.6447346
10.305799 -6.3001642 1.4300363
7.9512787 -7.5480156 1.7265313
9.4386845 -8.9576931 3.5951312
9.5547876 -2.7048173 2.2329152
10.707506 -7.0947142 2.2525764
8.8705006 -8.3153782 3.6112652
8.9560356 -3.5131092 3.1439452
8.7669249 -4.9405332 3.5911477
8.181963 -7.2800527 3.5132079
10.490368 -7.8356695 1.8467189
8.1782122 -7.8624134 2.3401234
10.514558 -7.3735008 2.849494
8.5286627 -3.6756086 1.8810406
8.2402706 -5.0883846 3.2772946
9.3923006 -7.0109067 3.6947615
8.5963459 -3.6417379 2.9480507
9.0690289 -7.5122757 0.97749889
8.7557325 -7.7281199 2.3154349
7.759861 -7.2219934 2.8830881
9.0709152 -0.95569384 3.2096844
8.0847864 -7.357316 2.1259484
8.4040031 -7.357326 2.6510677
9.5918427 -7.8739901 2.2398076
9.3484001 -7.0845714 0.86757904
9.1854229 -2.9827347 2.9696751
9.3764114 -0.92089665 3.5711384
8.9538193 -4.771584 3.1409149
10.278071 -8.1563282 1.3415462
7.9344425 -8.3824806 2.449399
8.2623253 -4.944931 1.4758866
9.5595503 -7.4641271 3.7262559
10.690166 -6.6278081 2.3181486
9.3998299 -2.8961344 1.9957643
10.499083 -8.2644291 1.6806898
8.6404819 -8.5998268 3.3997588
8.8907824 -8.5188398 3.5344002
8.8861094 -7.3573418 2.7991157
8.8340216 -7.8419313 0.90197051
10.565937 -7.3228087 2.6821015
10.35552 -7.5666428 1.5787058
10.147806 -7.6357207 3.5657961
8.0835276 -8.4422112 3.2932842
10.206737 -5.2072868 3.2334998
9.1763344 -7.7479072 2.150985
9.0705986 -3.4759679 3.1655259
9.2605667 -2.9648499 1.7264183
8.1809349 -6.8915839 1.2479451
7.8660684 -8.6112003 2.881042
10.333363 -8.0532265 3.0912685
8.3926153 -4.4127893 1.8537213
8.037878 -8.5835972 1.5298861
8.9214172 -4.5786443 3.7409773
10.017314 -4.9637556 1.9302061
9.3259773 -7.7043624 3.4754395
10.58679 -5.8247747 2.1197722
7.9762092 -7.3861809 3.290936
8.5661745 -6.0382161 1.0884428
9.9103222 -4.8323712 3.4332607
8.7350206 -4.0326395 1.6142201
9.9710884 -7.4766941 3.5459681
9.3889894 -2.3104959 3.0630443
10.346045 -5.8155742 3.1972046
8.8807755 -7.6311188 0.88125551
10.62431 -7.030724 2.8917341
8.0132961 -4.8182092 1.884729
8.0903463 -4.8720407 3.0220718
8.960968 -4.7243118 2.9265902
8.7902946 -7.6313577 2.9172485
9.0276871 -7.3573427 2.857079
9.4026852 -4.2165098 2.9072459
8.6483021 -4.9785995 3.5499041
8.9428501 -4.535151 3.3796644
8.3353729 -4.9637561 2.6445191
8.6808586 -7.3288522 0.94482017
9.1303577 -3.8084397 1.5278862
7.7306604 -8.1441116 2.6814749
9.8093567 -3.3365643 2.759609
7.8590269 -5.2927365 2.2679262
10.100181 -7.7697248 1.9329536
8.5742197 -7.357316 3.3086028
9.0998402 -7.8445005 1.5732696
9.8546448 -4.9637561 2.1627998
9.650672 -8.3083735 0.97074944
10.24743 -5.4755425 1.5073705
9.4252987 -7.3573155 3.5729566
10.014919 -6.4579659 3.6138182
7.9242005 -5.1373749 2.7254889
8.4996347 -3.5797076 2.8039527
9.7698231 -7.7635779 1.0864365
10.093734 -8.4064531 3.2468522
7.744442 -6.5760202 2.0275679
8.0567751 -7.7276869 2.5766606
9.6338673 -7.8413343 2.4453311
9.8211432 -7.6401691 1.8737483
10.087544 -8.0723047 1.1641892
9.5694208 -5.3587589 3.6715372
9.3504086 -1.472266 3.1708961
9.2704363 -5.6640124 0.98602921
10.525301 -8.8380108 2.4090216
9.7642918 -7.6923385 1.2164159
9.8065205 -4.9637561 1.9115696
10.590307 -6.4395294 2.856915
7.7821598 -7.350831 1.7948824
9.4584341 -4.7528944 3.4194551
8.1590214 -8.7669182 3.2598598
10.342602 -7.8715925 1.3904541
10.482108 -5.4149876 1.9473276
8.9700861 -8.8502817 3.4814138
8.6520491 -4.62184 1.3934805
9.7832422 -6.0766993 3.6927042
8.1473837 -7.6706018 2.0958853
8.9939728 -3.3520522 3.2319245
7.9202881 -8.1461535 1.5894074
10.211982 -6.850316 1.2519504
8.525423 -7.7105937 3.596384
8.5823689 -5.2131758 1.1962404
8.8844461 -2.1082525 3.7394845
7.7103152 -7.8728485 2.0593851
9.3212204 -8.7024794 3.4970927
8.1150732 -7.8208475 1.6491888
7.8660498 -5.5670166 2.7468572
8.2172318 -6.2564669 1.29626
9.2639999 -7.3573203 3.3355498
10.558702 -5.4735489 2.3017554
10.64596 -7.306849 2.8292041
8.3007679 -7.3573189 2.7816038
8.4485741 -7.357316 3.1629648
8.6786442 -4.7803559 3.5330269
8.730011 -3.4227719 2.4173086
7.8198099 -7.9211988 2.4285858
7.808702 -8.4035749 2.8068957
10.594858 -7.7563343 2.4228029
10.011927 -8.7731495 3.4607892
10.351622 -8.7424612 2.2311096
9.4795637 -5.9057789 0.98100066
7.9213409 -5.7521234 2.9736123
9.6454515 -7.6760721 1.2577914
10.534753 -7.4804449 1.6574092
9.6215372 -4.9637561 1.8251082
9.0150747 -3.4227719 1.9821544
9.2933569 -7.7724447 2.0122132
9.8814688 -6.7068205 3.7144523
8.9246712 -4.3190746 3.7732172
10.162369 -7.7768326 1.5688546
8.9829245 -4.8533459 3.6352561
10.374319 -8.8585587 2.4069848
10.370635 -7.7995148 1.6016784
10.165035 -7.4195051 3.3900354
9.0163956 -6.0321527 0.95581019
9.3904705 -2.6783853 3.2318287
8.1033115 -8.0068836 1.3318791
10.107324 -4.9637561 3.0967784
9.1170654 -8.0027428 1.009637
10.165886 -7.357316 3.1121249
9.6184578 -3.0027614 2.8857174
9.0475016 -1.9400425 2.8876166
10.343564 -5.541069 1.6106138
8.9431915 -3.4227719 2.7808187
9.9789743 -4.683753 3.3487248
9.2921 -1.5222181 2.3804317
9.251544 -8.5878677 0.94335687
8.3161335 -5.132555 1.3920618
9.3726902 -7.6803656 1.860155
10.022502 -7.357316 1.5552039
9.360323 -3.4227719 1.9291475
9.8567905 -4.9637561 2.6641221
9.1331758 -7.7269087 1.8914888
7.9233294 -8.3496628 2.2562425
9.3121777 -3.3926749 1.6037056
8.1819677 -6.6414027 3.4822021
10.496358 -7.6828899 3.1740551
7.8601804 -6.520946 1.7270095
8.822464 -7.8646674 1.4819471
8.9077444 -8.0790768 2.2390003
8.0728712 -4.6131182 2.4265347
10.296747 -7.357316 1.7486078
8.5250502 -7.7388325 1.8444616
8.9024734 -7.5691032 0.99617094
9.6881285 -7.6470084 2.8672888
9.4850178 -6.4133906 0.92754078
10.161813 -8.609436 3.0293717
9.7910337 -5.3498363 1.1667874
8.035243 -8.5022345 2.7288535
9.8777514 -5.2758732 1.2246647
9.2894316 -4.2006979 1.4644263
8.8754215 -8.7142973 1.0131322
8.6827602 -7.9739666 0.95393735
7.6674953 -7.2647572 2.3807015
9.3301897 -0.37239888 3.5905924
9.8862123 -7.3817511 1.157182
8.0200787 -5.4009924 3.0532517
9.6338272 -4.5035782 3.371923
10.604014 -7.622468 2.9714944
8.9368801 -4.4146881 3.5042896
9.6603155 -4.9637566 2.4804451
8.9451122 -4.6558032 3.3188291
8.6966438 -3.4227719 1.9334073
10.679684 -8.1110544 2.5365226
10.498826 -5.2066746 2.6465211
7.7350903 -7.2458124 1.9534278
9.0313606 -1.8223442 3.0313628
9.0007763 -2.1460974 2.5365045
9.0667429 -5.6832948 3.766808
9.7843781 -5.9137855 1.0827591
10.397078 -7.0017996 3.3040028
9.5043011 -7.3573236 3.2111411
8.2552958 -6.9717727 3.569699
8.0036478 -5.2616262 2.9796643
9.4298382 -3.8427103 3.5778399
9.3546343 -4.8369665 3.6378558
10.07667 -8.8991852 3.316155
10.61758 -7.4346294 2.9268503
8.9706821 -1.8279662 3.3724871
10.410403 -8.4906321 2.2645776
8.0915108 -8.223608 1.6448381
9.8791389 -5.3817739 3.5430264
8.9950876 -1.9629605 2.3268704
8.3243427 -8.9408455 3.1580706
8.217411 -7.3573184 2.3253534
9.1734552 -3.0780694 1.7012587
10.56468 -7.1523252 1.7198634
8.9390869 -2.8227358 3.5047016
9.4130478 -3.8548679 3.367589
8.3992863 -7.357316 3.3059347
8.7476759 -8.4807882 3.5068407
7.9204316 -7.6855078 2.3771162
8.2575455 -8.3961029 3.2068863
8.5272493 -8.0689659 1.1977593
8.9796419 -2.9698558 2.6447303
7.7158999 -6.9878683 2.0249531
9.0977592 -0.50314087 3.2794268
10.654303 -7.7641621 2.7941284
8.3503904 -8.275753 3.5792146
9.3121548 -8.7741833 3.7243595
10.081336 -6.9958868 1.1429898
10.601582 -7.9594135 2.917294
9.3785629 -1.7642838 3.1944761
8.8349304 -7.7698574 3.4627929
10.701802 -7.1012611 2.5616388
9.0076942 -8.1838531 2.3795033
8.2884045 -6.9610262 1.1589279
10.332882 -7.9990187 1.6160163
10.573624 -7.8807545 2.2635121
9.3336868 -0.27199113 3.6735001
9.2650528 -0.82628202 3.0017433
9.3661242 -7.3573256 1.5351071
10.309236 -4.9637556 2.8501987
9.0863066 -7.7201104 2.6540418
9.8690329 -7.7740822 2.9142714
8.1374245 -7.8694224 1.4727964
8.4975271 -7.6698828 3.2460878
7.9831133 -7.357316 2.5321269
10.5755 -5.6829672 2.1693792
9.7431355 -7.7654424 1.4427083
10.190821 -7.9689789 3.3027644
10.405045 -5.0761342 2.8851368
10.345668 -8.6905518 1.5686789
8.9791365 -3.1623349 3.4381871
8.1619892 -7.357316 1.9402413
9.4144964 -2.1007638 2.4732718
8.1951427 -8.047123 1.2493082
8.7970848 -7.6538911 3.3967385
9.5231438 -7.7551084 3.5627465
10.382564 -4.8155584 2.8358498
9.4021273 -3.0219762 3.3856523
9.4034882 -2.2440703 2.2004049
8.4548397 -7.743392 2.2557404
10.252352 -7.9956636 1.5129609
9.5539131 -7.6302695 1.0153251
9.7151823 -7.8126912 3.423964
8.7295551 -7.357316 3.3182831
9.1905022 -1.7307221 2.8968637
7.9382057 -7.3273296 1.5118846
9.2367897 -7.357316 1.2667658
10.044243 -7.7449489 2.6690526
10.053052 -8.6431179 3.4866509
7.6041055 -4.5091219 3.7652619
9.4945621 -4.9946856 3.6380813
8.9332018 -7.7920618 1.4555032
10.71716 -6.8987527 2.369226
10.240242 -7.4870653 1.2674974
7.945816 -4.7583728 2.5851297
8.6035881 -4.9637566 3.3468227
8.8060799 -5.7589951 3.727468
9.450655 -1.5063086 3.7276149
9.7508116 -4.8859653 1.2175729
9.8652163 -3.4548721 1.9518976
10.235294 -4.6627388 2.8433838
10.272858 -7.357316 2.6361098
9.5474663 -7.8602152 3.7102275
10.103052 -6.2861738 1.2361704
7.8336973 -6.9009976 3.0490932
8.3574705 -7.7745156 3.6493709
8.7596493 -6.025763 3.7423534
9.450325 -6.7762365 3.7181487
8.0226574 -8.4128227 2.8154218
9.8485727 -4.6351757 3.4347329
10.114476 -8.8589315 1.4485494
7.7965302 -7.8184252 2.318264
8.3971052 -7.3573203 2.9027402
8.7655821 -7.226871 0.92010707
9.8077021 -4.0058355 3.0198781
8.7225323 -2.9762435 2.1733212
9.0428362 -2.0793884 2.1994996
8.0416298 -8.5313454 2.0190051
10.376821 -4.7656956 1.9150553
9.365427 -8.0812922 2.1128182
10.668121 -7.6664133 1.9880046
9.8642874 -3.6057134 2.8507528
8.4158688 -4.4878798 3.1295218
9.127347 -3.1350853 3.0602717
10.013586 -6.0565424 3.5620635
9.697957 -7.3573422 2.2537398
7.9703627 -4.9637561 2.6863475
10.240366 -7.6654305 1.2654581
8.116559 -7.3573165 2.7132468
9.4419594 -8.1016235 2.2259524
8.4715214 -8.165781 1.2483732
8.5129499 -4.444684 1.6957463
10.289541 -4.7209692 2.9919877
8.8060694 -4.7580662 3.5748744
7.8497715 -7.5893145 1.6629493
9.2587099 -6.6489959 0.88022614
8.2894773 -8.6827354 3.0726509
8.3589125 -4.2502642 1.974947
8.6287775 -4.9637566 1.589416
9.4674797 -4.6573935 1.2738765
7.7128191 -7.2167234 2.7278283
9.0090494 -1.0812629 3.4957352
9.0875998 -8.6413269 3.5161567
10.143127 -6.1604643 3.469708
9.4753456 -2.7661753 2.0883811
8.833292 -4.9637561 3.1919999
7.9333038 -5.2039595 1.961458
10.133459 -6.636632 3.5416491
8.9164734 -4.2449265 1.4946668
8.867691 -7.585743 3.7342267
9.5058842 -4.7507148 1.1479368
8.6454916 -6.1794071 3.7244039
9.418232 -4.214427 1.4836845
9.6697636 -6.2412429 3.7533717
8.6154633 -3.4967051 1.8228893
8.9634428 -2.9375949 3.4158978
10.059411 -7.8265591 1.39213
8.4449711 -7.357316 3.4231505
10.565393 -6.6718683 1.7628545
8.919445 -2.1350889 3.5270681
8.5145836 -5.5412207 3.5723646
10.082676 -7.5488706 3.4535542
10.19789 -7.6931524 1.3840314
8.4653654 -3.9522724 1.8845913
9.032136 -7.8828278 1.9750602
9.2678595 -4.4125438 1.4263742
9.3709412 -7.8378057 1.2247343
8.1755009 -4.9637561 1.8942883
9.0688906 -5.5026269 3.7401769
9.2207336 -5.932374 0.95129699
8.1038723 -5.4748454 3.1999359
9.2952747 -7.715364 2.409019
8.8350563 -2.6083477 2.4377351
8.5236111 -7.3573265 2.8706648
8.6640902 -7.3573408 2.4970989
9.5214224 -5.4720035 1.0493544
10.451571 -7.6917706 2.3427205
10.065855 -5.6262865 3.4562054
9.1456261 -7.357316 3.5821857
9.1390438 -7.5348463 0.85364914
8.3529873 -4.8577061 1.4109055
8.4497271 -5.6724505 3.5596142
8.7946157 -3.8187325 1.6233029
7.9714952 -7.6266694 1.4669509
9.3731537 -8.4894009 0.93179226
9.8576059 -7.3573246 2.938977
9.2833786 -1.6996491 2.4871454
10.156296 -4.6175346 1.5840824
10.514779 -8.7025242 2.8004224
8.9303436 -5.227572 3.3672001
8.678669 -5.4180803 1.1142728
8.9656296 -2.5531151 3.2140026
8.2894287 -7.357316 3.1350024
7.8164229 -7.4601364 2.0913067
10.152017 -7.3573189 2.6174598
10.429614 -8.5998068 1.6669217
7.7763901 -8.2462616 2.7809813
8.3090019 -4.2922845 2.0795617
9.4247322 -4.9637561 1.3933637
8.96912 -8.3226814 0.91523683
8.0727997 -5.0194058 1.7133603
8.90732 -2.0002739 3.6573248
8.6714087 -7.3573399 2.1470549
9.5378294 -2.9771595 1.9826694
10.612199 -8.4317474 2.6825886
9.0680542 -7.8677697 3.3428311
8.0001011 -7.357316 1.9993601
9.1840134 -7.8735199 2.441606
7.8008213 -5.6321535 2.386874
10.09178 -8.5153418 3.4853656
9.9727955 -7.7808304 1.6674941
9.0552654 -1.786389 2.915062
9.3735676 -7.8100696 0.86972535
10.714792 -7.2837648 2.4469841
8.328969 -7.0516911 3.6311202
10.340987 -6.6324611 1.4184976
8.8574944 -3.4227719 2.0551338
9.074152 -1.663061 2.9047098
8.1037464 -7.7418098 3.4437284
9.3024597 -2.3066552 2.8377812
8.3400087 -7.8419051 2.3813512
9.9298248 -7.3573279 2.6941688
9.3751564 -8.2666063 1.0719609
9.3518763 -4.6955194 3.6171119
8.2710419 -7.7555761 1.313148
9.0970373 -6.9409733 0.86332226
8.8347712 -7.8450117 3.264195
9.8656263 -7.3573246 1.8345089
9.049469 -2.969856 2.7743268
8.5181732 -7.3573337 2.5297344
9.4195766 -4.32761 3.0198309
8.3059006 -7.8917665 3.5967603
9.6831551 -7.7426577 3.0545449
9.2145329 -0.23854746 3.1988218
9.3241806 -8.2893047 0.90170729
8.1982899 -4.4287109 2.7413938
8.1059895 -7.7942476 2.4532659
10.597666 -8.4372215 1.9956506
10.436493 -8.3950462 2.5971723
8.7884493 -8.6465969 1.2495461
9.5597191 -2.8322294 2.1743259
9.7903328 -7.357316 1.420168
9.2353849 -5.4859314 1.0070601
9.4075661 -2.7055528 3.4357662
8.2940111 -4.5062342 1.7648983
9.3043222 -7.3573179 1.3854778
9.2550793 -3.2893403 3.089098
9.2590084 -2.7755437 1.9779162
9.576643 -7.6421356 2.0479999
9.8282967 -7.3897033 0.99215221
9.4471521 -2.163789 2.347508
8.192091 -7.6496601 2.4504929
9.0022964 -2.496841 3.0034275
9.3425264 -7.8722706 1.695959
8.3820601 -3.5901761 2.3070753
9.1071539 -7.6751537 1.7239301
8.2137976 -8.9377518 3.0362403
8.754714 -4.9637561 1.5664452
8.8652859 -7.6748786 2.3125505
10.337065 -7.357316 2.8504198
9.0208893 -1.9777384 3.0181615
7.7389617 -8.2975893 2.1517794
9.0519657 -1.1974711 3.2039056
10.44702 -5.2879448 2.8576396
9.3440418 -3.4894829 3.1652558
9.5871983 -2.781611 2.4806685
10.586867 -8.0996571 2.9294779
9.3089867 0.0081586689 3.7133553
8.7667618 -7.7774897 3.5661542
9.4824791 -5.7007456 3.7550497
9.131958 -8.8419189 1.1058146
9.8100033 -7.0620165 0.98581821
9.416584 -4.9637561 1.6085095
8.9550991 -4.9136591 2.8635693
8.7064543 -3.4227719 2.5807879
8.2603292 -7.357316 2.9853613
7.8418283 -7.3114271 1.6832893
8.6624413 -7.7000551 3.4789863
8.3767061 -7.2887764 3.6642938
8.6596584 -4.4173231 3.1743217
10.469427 -7.7431827 2.5346575
9.9415312 -5.1580634 1.2800382
7.8967857 -5.0439987 2.2444212
9.1117449 -7.6588621 3.0600586
8.9633694 -3.780652 3.5121562
9.1224937 -7.6443043 3.4162743
8.3597383 -4.9637561 2.0776339
8.41119 -6.9515109 3.6791835
8.7918282 -7.0494843 0.91386425
8.5989695 -7.8747287 2.3172789
8.2476902 -4.9637561 2.2521558
8.9069023 -6.0137825 3.7387686
9.3261871 -0.15017463 3.7088304
10.296337 -7.7994499 2.2614017
9.5400953 -7.7609272 3.4049642
9.2412062 0.36371937 3.5615208
8.5793591 -3.4227719 2.0464392
10.528509 -7.3474755 1.6483548
7.809484 -6.697257 1.7829945
7.9267836 -7.803688 2.9613371
9.0672951 -7.6730013 3.5876551
9.9812641 -4.5103827 3.1311135
8.877944 -7.357316 1.2546502
9.1313915 -3.274543 3.0861697
9.0855141 -0.43373302 3.3929729
9.5068607 -4.537343 3.4275827
9.909668 -7.357326 2.817935
10.082476 -4.3193808 2.6824744
9.2153177 -7.768321 3.2152214
8.3882618 -6.4561005 3.6213601
9.4391937 -3.9834902 3.5842443
7.896637 -8.4285812 1.7136723
10.241859 -4.8259864 1.6427385
10.650674 -6.2707596 2.4600589
9.9874115 -6.9271903 3.6736095
7.8824482 -6.8575187 1.6162224
7.976481 -5.5681143 3.0230746
10.18384 -7.357316 1.4172578
7.747613 -6.3568726 2.6493127
10.317531 -4.6062388 2.3848491
9.2498055 -2.4082408 2.6883099
9.4475336 -4.6145425 1.1497395
8.6349125 -4.6152606 1.2613347
9.3008766 -3.8141448 1.5311111
8.4652958 -7.7034678 2.0917921
9.1436863 -7.8641839 2.1705902
8.087944 -6.8578877 1.3362838
10.525436 -7.9914804 2.6598754
8.0841885 -7.5000038 1.5178518
9.2283096 -8.1554298 2.1317379
8.9809437 -6.623713 3.7339854
7.7156119 -6.5315475 2.5095549
9.8705063 -3.3205049 2.1284311
8.7988329 -7.8063059 1.5878996
9.9943876 -3.5345399 2.279192
8.0867357 -7.8343635 2.6846652
10.307314 -5.0080662 3.0470104
9.8825655 -4.464704 3.1982288
10.222546 -7.8664927 2.0537288
9.7380981 -3.8543878 1.7117267
8.8179741 -4.6201725 3.4373918
8.166441 -4.5033512 2.0326138
10.665314 -6.4776726 2.2249334
9.1560555 -0.092414081 3.2745178
10.355187 -7.471426 3.3619335
9.4389954 -2.752656 3.7129703
9.6066284 -4.2562528 3.2093449
8.0260391 -8.7045441 2.3371129
9.0830679 -7.8586378 1.4378824
9.016737 -1.4957718 3.2626228
10.13141 -8.2584934 1.2280376
7.953692 -8.3027096 1.5724127
9.9907207 -7.7119293 2.8687825
9.1836004 -4.9637556 3.2267623
7.8464961 -7.4837446 3.0844784
8.3363066 -4.9637556 1.6683784
8.6457882 -7.3573303 2.8954659
8.6954584 -7.7678719 2.5695872
8.4940023 -7.1683278 3.7257285
9.7318411 -8.0283508 3.610606
9.0313787 -6.8930664 3.7214143
7.9338403 -8.3527012 2.5836563
9.364748 -1.153554 3.4040246
8.0819006 -8.8014727 3.144253
8.1933222 -7.9250765 1.2430696
10.362129 -7.5007076 1.4017522
8.7889328 -4.9637561 1.4352636
9.3264008 -3.4227717 2.079793
8.0934496 -6.5902157 1.369593
8.3491726 -6.5061188 1.1544425
9.0146799 -5.1777587 1.0630889
7.8054814 -5.8606586 2.6732683
10.421911 -5.3860054 2.9488592
8.9428329 -4.8082333 3.3305149
9.5635471 -8.6967802 1.0211582
10.477421 -6.2295647 1.6957607
8.6436386 -8.7921886 1.1358149
9.3566914 -6.9500256 0.86964816
8.7558479 -8.1803818 1.1158752
10.667754 -6.5882173 2.6231356
10.058641 -5.6809268 1.2827578
7.8705263 -6.0510974 1.8112308
9.8490753 -8.2145329 1.2228487
10.099753 -4.4509668 2.9455843
9.462347 -3.4227719 3.0172384
9.1544285 -1.8863833 2.5608354
8.9611301 -4.1078024 3.4145961
9.029973 -6.7968349 0.87463784
9.4026966 -3.4766865 3.3095021
8.9584503 -3.1098194 3.6905241
9.5828409 -2.9714091 2.1398683
10.309218 -8.8773508 1.819636
8.1657448 -7.4875555 3.3270636
9.7913847 -8.2463703 3.7225432
7.7089443 -8.1692219 2.468322
8.7639294 -2.9751363 2.6317539
7.9743137 -4.6174455 2.1106136
9.8328304 -6.0615277 1.0912503
8.8347912 -7.3573251 1.5885177
9.316246 -6.2433424 0.92824018
9.2306519 -7.8072338 1.7301142
8.993638 -1.8182869 3.245482
7.8239031 -5.7420731 2.6915481
7.9971037 -8.898571 2.3786604
9.1034126 -8.4522247 1.134514
8.4420853 -7.9462376 1.0656285
8.0304136 -4.9637561 2.1742115
9.5143337 -7.8499556 0.8901574
9.7960625 -3.0003324 2.1009281
10.361136 -7.6120977 3.1545513
9.8610687 -5.2496452 3.5306253
10.05488 -3.9330206 2.5484695
7.8824539 -8.2452669 2.342555
9.9730082 -4.9637556 3.0797822
8.5964813 -8.6303949 1.3426732
9.2009735 -2.6097131 2.8511002
10.189905 -8.0583057 1.2471328
10.309722 -4.6144071 2.2635679
9.0113554 -8.1473799 2.504787
9.8438148 -7.6344051 2.4699025
9.7732754 -3.4227719 2.6609499
8.4672241 -7.6690226 1.1695701
10.497121 -5.6848478 2.8893199
9.7289705 -8.5423851 3.6970961
8.7568455 -4.9637561 2.5496452
9.052968 -5.3661871 3.7183366
10.205388 -8.2692814 3.1800416
8.7044249 -3.9095058 1.6554703
9.361681 -7.3573442 1.9271605
8.0770788 -8.8775444 1.823539
8.5985041 -7.684052 3.1037927
9.6724024 -8.3160791 3.7531216
7.8916883 -7.0816174 3.1611261
8.046382 -8.8966494 2.6498597
9.8927889 -6.3499713 1.0893143
7.8915124 -8.4049044 3.0107851
9.6770601 -7.927546 0.94309825
9.4637299 -7.7738047 2.7318316
9.5769978 -7.7834873 1.2273408
10.120183 -4.2381911 2.4109223
8.987833 -2.8053014 2.7341766
9.113018 -7.8511491 1.8779174
7.9398322 -7.357316 2.363271
7.7916675 -7.3377533 2.4289536
10.024296 -7.6537046 1.7031914
8.0865774 -8.0903969 3.3764787
8.7780132 -3.6811984 3.0971806
10.405162 -7.4822083 1.6675392
8.3740034 -4.4078102 3.0359704
9.2448406 -8.4443016 1.1275392
8.6593037 -7.770844 1.8657091
9.1428537 -8.1143866 0.87184608
8.9343939 -4.9054079 3.4582968
8.167285 -7.8528318 2.0280395
8.1646528 -5.2846422 1.5205734
8.5447941 -4.6278343 3.4360352
9.517107 -2.9698563 2.4760904
10.109612 -4.2085314 2.2884843
8.329299 -4.0051169 2.1796081
9.4246664 -2.7017577 3.5895567
8.6221924 -4.9637561 3.0767632
8.1978111 -8.4782362 3.078896
10.560097 -6.5301704 1.7841696
7.8269014 -6.1141806 1.9210552
9.4293842 -3.277431 3.6671467
8.0119085 -5.2921438 1.7464347
10.242504 -7.357316 2.9874747
9.5822363 -8.0024261 0.91784078
10.074579 -4.6588755 3.0962541
9.2932415 -7.8215599 1.5346646
9.0768013 -5.4378242 1.0212106
9.4280243 -7.6205835 2.6467292
8.3240604 -7.7561793 2.7750018
9.5200558 -6.1025987 3.6625571
7.6756115 -7.3477073 2.4709654
9.2903309 -8.4937859 3.5787921
8.6596355 -3.16695 1.9392729
9.569253 -3.1812029 1.7911768
8.360672 -4.9637561 3.1253381
8.9828672 -7.9765005 3.7141242
