# .PCD v0.7 - Point Cloud Data file format
VERSION 0.7
FIELDS x y z
SIZE 4 4 4
TYPE F F F
COUNT 1 1 1
WIDTH 839
HEIGHT 1
VIEWPOINT 0 0 0 1 0 0 0
POINTS 839
DATA ascii
-18.67113494873047 2.50909423828125 5.471001625061035
-18.120529174804688 -2.787628173828125 4.514370918273926
-18.52808380126953 2.4202499389648438 5.422647953033447
-20.04888153076172 -0.19515228271484375 3.776144027709961
-17.49321746826172 -1.981201171875 2.3572604656219482
-19.215721130371094 -1.9844284057617188 4.531924247741699
-19.163360595703125 -0.2727508544921875 4.6628217697143555
-18.021949768066406 1.0794448852539062 4.386282920837402
-20.19324493408203 -0.8602447509765625 3.1525299549102783
-18.181337356567383 -1.3573226928710938 3.100841999053955
-17.843944549560547 1.360076904296875 2.5267391204833984
-20.11612319946289 -1.479034423828125 2.7675414085388184
-17.629940032958984 -0.18102264404296875 2.2858808040618896
-19.02930450439453 2.8432846069335938 5.0916290283203125
-17.973709106445312 -1.3573226928710938 3.9100587368011475
-18.73305320739746 7.09259033203125 5.1370954513549805
-19.642837524414062 -2.8620681762695312 2.4196224212646484
-18.02031707763672 -0.7414932250976562 4.639153480529785
-18.675264358520508 -1.655517578125 1.7553632259368896
-19.5493221282959 -1.50738525390625 4.380466461181641
-17.552457809448242 -1.70953369140625 2.262770414352417
-18.873497009277344 5.4674072265625 4.700577259063721
-18.859935760498047 4.2531890869140625 4.068451404571533
-17.887969970703125 -0.8795242309570312 4.579604148864746
-18.977916717529297 3.0199127197265625 2.810072183609009
-17.503482818603516 -1.83599853515625 4.23043966293335
-19.53069305419922 -1.6502151489257812 3.7874746322631836
-19.126522064208984 -1.7144393920898438 2.5787193775177
-18.194503784179688 -2.2998046875 2.0701284408569336
-17.51964569091797 -0.04425048828125 2.4426705837249756
-18.966564178466797 3.3917999267578125 3.5125885009765625
-17.423107147216797 -1.3108062744140625 2.6700117588043213
-18.47260284423828 4.786384582519531 4.481880187988281
-19.87225341796875 -2.5319061279296875 3.0827910900115967
-18.62567901611328 5.4667510986328125 5.615494728088379
-19.321632385253906 -1.7349014282226562 2.3268754482269287
-18.923797607421875 1.5368576049804688 4.988305568695068
-19.338668823242188 -0.48955535888671875 4.61319637298584
-19.04082489013672 -2.2839736938476562 1.8453361988067627
-17.91431427001953 0.4663848876953125 2.138096332550049
-18.96435546875 2.0911483764648438 2.462536096572876
-18.768157958984375 6.366233825683594 5.002773284912109
-18.991954803466797 -1.7615203857421875 2.3034300804138184
-19.209714889526367 -1.5697860717773438 1.854048490524292
-18.619548797607422 6.3663787841796875 5.504953384399414
-17.947410583496094 -2.682098388671875 2.081270217895508
-18.515682220458984 6.743072509765625 5.0440521240234375
-17.809612274169922 -2.3730926513671875 2.3524458408355713
-19.230449676513672 2.2118301391601562 3.9339892864227295
-17.715232849121094 -0.7666854858398438 2.1275668144226074
-18.001548767089844 2.8711166381835938 3.219359874725342
-18.421852111816406 3.8125534057617188 3.2800979614257812
-18.157073974609375 0.5235748291015625 4.551307201385498
-18.06269073486328 1.764495849609375 2.598848342895508
-17.655902862548828 1.0433120727539062 4.06557559967041
-19.905517578125 -2.2404251098632812 2.796236753463745
-17.242332458496094 -2.4564743041992188 3.1376590728759766
-18.81658935546875 4.2093658447265625 3.8013014793395996
-18.721908569335938 5.821746826171875 5.596067428588867
-17.75691795349121 -1.38262939453125 4.4927978515625
-18.95013427734375 3.7677154541015625 4.356834888458252
-18.844974517822266 3.0301361083984375 2.9937853813171387
-18.929447174072266 2.995361328125 4.75060510635376
-17.397769927978516 0.7672653198242188 3.6306285858154297
-18.96646499633789 -0.2798004150390625 4.834702014923096
-18.9918212890625 0.7804946899414062 1.9874939918518066
-20.060653686523438 0.3069610595703125 3.0265796184539795
-17.371334075927734 -0.220001220703125 2.6587865352630615
-18.448509216308594 2.1047515869140625 5.260463237762451
-18.896364212036133 7.268791198730469 4.648776054382324
-18.140506744384766 -0.1663360595703125 4.632455825805664
-19.367008209228516 -1.3533096313476562 4.643899440765381
-18.502552032470703 5.674156188964844 4.769132614135742
-19.370445251464844 1.5325546264648438 4.107604503631592
-19.619884490966797 -1.3573226928710938 3.0449695587158203
-19.32904052734375 -1.7521286010742188 4.514834880828857
-18.318815231323242 -1.3573226928710938 2.969284772872925
-17.27236557006836 0.22422027587890625 3.263446569442749
-18.92786407470703 3.6521148681640625 4.286259174346924
-17.441062927246094 1.368255615234375 3.3750219345092773
-18.473819732666016 4.5845184326171875 4.383270263671875
-19.899675369262695 -1.9801788330078125 2.6601128578186035
-19.35356903076172 -2.9548568725585938 4.288171768188477
-18.827608108520508 -1.6585617065429688 4.495201587677002
-17.353195190429688 0.8184967041015625 3.280543565750122
-18.461700439453125 3.218994140625 5.622246742248535
-20.088916778564453 -1.573333740234375 3.2686197757720947
-19.47351837158203 2.3045654296875 3.5491127967834473
-18.75278091430664 -0.37206268310546875 1.8172067403793335
-18.061304092407227 -1.649139404296875 4.6803507804870605
-19.197643280029297 -1.0072479248046875 4.714881896972656
-17.95013427734375 2.62322998046875 3.016681671142578
-19.64575958251953 0.45366668701171875 4.273666858673096
-19.125442504882812 1.7665252685546875 4.0963945388793945
-20.049278259277344 -1.6070022583007812 2.958559989929199
-17.350078582763672 -2.363250732421875 3.8750338554382324
-19.95819664001465 -1.71331787109375 3.459108591079712
-18.462175369262695 -1.9027252197265625 4.7745041847229
-17.79682159423828 -2.0048065185546875 2.0615875720977783
-20.079418182373047 -1.0802993774414062 2.6776275634765625
-17.16581916809082 -1.4871978759765625 3.407275676727295
-17.2742919921875 0.1632232666015625 3.3916006088256836
-19.054912567138672 -2.8259124755859375 2.007772922515869
-18.068805694580078 -2.4420242309570312 2.1972134113311768
-18.520458221435547 -1.5006332397460938 1.888967752456665
-20.05709457397461 -0.9121932983398438 3.9315552711486816
-18.78877067565918 -1.8433990478515625 3.211224317550659
-18.860313415527344 -0.01422119140625 1.8651554584503174
-18.33613395690918 -2.6189346313476562 4.385212421417236
-17.781959533691406 1.9231491088867188 3.2931015491485596
-19.976882934570312 -2.886383056640625 3.274606943130493
-20.06063461303711 -1.6205596923828125 3.557936668395996
-17.716720581054688 -2.3234939575195312 2.4265661239624023
-20.041702270507812 0.368621826171875 3.5859649181365967
-18.534408569335938 -2.6001129150390625 2.095871925354004
-19.06594467163086 6.059379577636719 5.618608474731445
-18.630218505859375 -0.221405029296875 1.831255555152893
-18.750205993652344 2.1190567016601562 5.405240535736084
-19.79840087890625 -1.4850616455078125 2.432143211364746
-18.166595458984375 -0.7256011962890625 4.701080322265625
-18.099693298339844 -1.3573226928710938 3.2205779552459717
-18.6676025390625 4.1152801513671875 3.786527156829834
-18.825767517089844 5.624534606933594 4.534694671630859
-18.28591537475586 -1.58062744140625 3.121212959289551
-18.58025360107422 3.0301361083984375 3.6203877925872803
-19.376062393188477 -1.3337249755859375 2.0664327144622803
-17.210487365722656 -0.8668365478515625 2.916876792907715
-19.523893356323242 -1.915374755859375 2.018955707550049
-19.88936424255371 -2.4999847412109375 3.4362359046936035
-18.441814422607422 -1.3573226928710938 2.6896252632141113
-19.814836502075195 -1.7079696655273438 2.734950542449951
-19.60848045349121 -1.7172698974609375 2.8322107791900635
-18.19983673095703 3.011474609375 3.735576629638672
-17.420778274536133 -2.888641357421875 3.012594699859619
-18.222572326660156 2.8307037353515625 2.7680504322052
-19.449302673339844 0.243804931640625 4.467668533325195
-18.948898315429688 -1.5924224853515625 2.5405571460723877
-19.37987518310547 2.3336029052734375 3.7383575439453125
-18.427608489990234 0.8618087768554688 4.799187660217285
-19.01006317138672 4.1701202392578125 5.141028881072998
-17.467514038085938 -2.098876953125 2.398292303085327
-18.82870864868164 5.909111022949219 4.730886459350586
-17.17249870300293 -1.71807861328125 3.0959084033966064
-17.390060424804688 0.0286102294921875 3.8921825885772705
-18.47296905517578 4.219581604003906 4.223423480987549
-17.778244018554688 1.3292617797851562 2.410235643386841
-18.461517333984375 2.9367599487304688 2.6496028900146484
-17.46680450439453 1.3870773315429688 3.5508289337158203
-18.93926239013672 2.1945648193359375 4.748678207397461
-17.514991760253906 -2.6987991333007812 3.254957437515259
-17.313602447509766 -2.4787063598632812 2.8129868507385254
-19.926910400390625 -1.6557846069335938 3.333413600921631
-18.091758728027344 0.64898681640625 4.495456695556641
-18.18218994140625 1.9030914306640625 2.531623363494873
-18.477481842041016 0.1096954345703125 4.956084251403809
-18.930233001708984 2.0213851928710938 4.525801658630371
-18.60417938232422 1.8292312622070312 2.37542724609375
-17.45250701904297 0.9538803100585938 3.718503713607788
-18.54027557373047 3.326904296875 2.932316303253174
-18.51258087158203 -0.7740020751953125 1.785142183303833
-18.745424270629883 -1.8924407958984375 2.8995041847229004
-19.57921600341797 1.7364120483398438 3.0397732257843018
-19.603580474853516 -2.086151123046875 2.2934556007385254
-19.443267822265625 -1.6137619018554688 3.0003178119659424
-19.993167877197266 -1.8797531127929688 2.527376174926758
-19.52958869934082 -1.4234848022460938 2.164987564086914
-17.42123794555664 -0.2759552001953125 2.5530924797058105
-19.4505615234375 -1.528717041015625 4.4567999839782715
-19.707870483398438 1.5460433959960938 3.5830814838409424
-19.786903381347656 -2.8508071899414062 2.7886343002319336
-19.812532424926758 -1.7777328491210938 3.2386622428894043
-17.99921989440918 -1.1109542846679688 4.641498565673828
-18.288572311401367 -2.3542633056640625 4.679690361022949
-19.297348022460938 2.7056961059570312 2.918604612350464
-18.866592407226562 -1.6979293823242188 1.8865364789962769
-18.50516128540039 3.6477432250976562 3.825744390487671
-17.596956253051758 -2.9284591674804688 3.7566542625427246
-19.266357421875 -1.592315673828125 3.5703954696655273
-17.173580169677734 -0.9334182739257812 3.1368908882141113
-18.789440155029297 4.321197509765625 3.3698651790618896
-18.943649291992188 -1.165740966796875 4.785863876342773
-18.605682373046875 4.378669738769531 3.191178321838379
-20.112159729003906 -1.5852890014648438 3.8196303844451904
-19.198596954345703 -1.6944427490234375 3.155276298522949
-20.201675415039062 -1.5251617431640625 3.3954925537109375
-19.495777130126953 -1.7041473388671875 4.418210983276367
-18.620471954345703 6.516021728515625 4.665974140167236
-18.996681213378906 4.564079284667969 5.700937271118164
-18.683860778808594 5.6060943603515625 4.025874614715576
-19.626361846923828 -2.2992172241210938 4.3996901512146
-18.034278869628906 1.86138916015625 3.9259612560272217
-18.15011215209961 -1.4954833984375 4.714098930358887
-19.915782928466797 -0.43487548828125 2.4639391899108887
-18.510177612304688 5.543548583984375 4.641149997711182
-18.074047088623047 -2.3157882690429688 4.406206130981445
-17.39756965637207 -1.9488677978515625 3.7516074180603027
-19.767364501953125 1.3513259887695312 2.6612727642059326
-18.326629638671875 -1.7624740600585938 3.0348212718963623
-17.158849716186523 -1.6691055297851562 3.3537425994873047
-19.48516845703125 1.8558502197265625 2.858290910720825
-18.042022705078125 2.1702880859375 3.853247880935669
-17.876754760742188 0.13885498046875 2.1167104244232178
-19.774423599243164 -1.7098846435546875 3.1062350273132324
-18.92013168334961 1.3812408447265625 5.003998756408691
-19.81045913696289 -2.3224411010742188 2.3367700576782227
-18.55992889404297 2.0113677978515625 5.348214626312256
-18.74871063232422 5.672523498535156 4.136886119842529
-18.77696990966797 -1.6766204833984375 2.8067173957824707
-19.380096435546875 -1.0185775756835938 1.9373400211334229
-18.90921401977539 5.697059631347656 5.084967136383057
-17.19013023376465 -1.3786239624023438 2.9676051139831543
-19.059707641601562 -1.3573226928710938 3.1607131958007812
-19.263397216796875 -2.7136993408203125 4.535079002380371
-18.090576171875 1.4038162231445312 4.233119964599609
-18.95462989807129 -2.2039031982421875 4.7385993003845215
-20.096332550048828 -2.029083251953125 3.7864444255828857
-19.062326431274414 -2.0789337158203125 1.8263061046600342
-18.625276565551758 -2.1182327270507812 3.0644924640655518
-17.64716339111328 -0.4560546875 2.2251830101013184
-18.834959030151367 -1.7886810302734375 4.546864986419678
-19.97966957092285 -1.7592697143554688 2.4875452518463135
-19.988201141357422 0.8343505859375 3.510690212249756
-18.414291381835938 1.8701324462890625 4.752873420715332
-20.100807189941406 -1.9631729125976562 2.7686374187469482
-17.652877807617188 -0.8885498046875 2.169260025024414
-17.67315673828125 -2.047210693359375 2.3785457611083984
-18.855777740478516 0.11798095703125 5.0129594802856445
-18.420486450195312 -1.8270950317382812 2.5883169174194336
-19.886281967163086 -1.80712890625 3.9889273643493652
-18.29301643371582 -1.687286376953125 3.510202169418335
-17.55632972717285 -2.392059326171875 2.7112913131713867
-18.39867401123047 3.4234695434570312 3.0712227821350098
-19.51971435546875 2.2524261474609375 3.3786749839782715
-19.71744155883789 -1.3573226928710938 3.277101755142212
-18.90056610107422 5.649345397949219 4.968864440917969
-18.657127380371094 0.74700927734375 5.094275951385498
-17.41502571105957 -2.1117019653320312 2.8548624515533447
-17.31749725341797 0.49090576171875 3.3994295597076416
-17.525955200195312 -2.5409164428710938 3.5869810581207275
-18.25763702392578 -1.3573226928710938 4.375149250030518
-17.38995361328125 0.5387954711914062 2.849719285964966
-18.240680694580078 -1.1118392944335938 4.737843990325928
-17.756145477294922 0.6508102416992188 2.300837278366089
-18.07067108154297 -0.2200927734375 1.966086506843567
-18.732696533203125 6.2721099853515625 5.533756256103516
-20.04642105102539 -0.331329345703125 3.832975149154663
-17.957836151123047 -1.4833831787109375 4.480885028839111
-19.929725646972656 -2.33392333984375 4.04730749130249
-17.517101287841797 -0.9398193359375 4.255571365356445
-18.200721740722656 0.890899658203125 2.0559191703796387
-20.011505126953125 0.06806182861328125 3.80515193939209
-19.9462947845459 -2.243377685546875 3.6056385040283203
-18.037311553955078 2.641265869140625 3.6183922290802
-20.20635986328125 -1.452911376953125 3.229611396789551
-18.46810531616211 5.207191467285156 4.700173377990723
-19.048385620117188 6.3541259765625 5.569450378417969
-19.566486358642578 -1.6740264892578125 2.1898112297058105
-19.925994873046875 -2.87176513671875 2.9018731117248535
-18.328227996826172 3.1714859008789062 3.5068917274475098
-18.57917022705078 1.5210342407226562 2.214773654937744
-17.285213470458984 -1.4008102416992188 3.3818795680999756
-19.941917419433594 -2.6174850463867188 2.627551555633545
-18.57030487060547 4.8638458251953125 3.9747097492218018
-17.292455673217773 -1.50457763671875 3.1113193035125732
-17.243558883666992 -1.5892257690429688 2.784730911254883
-18.3016357421875 3.2749786376953125 3.378464698791504
-17.827011108398438 2.1324615478515625 3.180771589279175
-19.33429718017578 0.626434326171875 4.46708869934082
-18.62860870361328 4.3192291259765625 5.671014785766602
-17.806175231933594 -1.7090072631835938 3.413656234741211
-19.517765045166016 -2.7998580932617188 2.222017288208008
-19.070249557495117 -1.3573226928710938 4.625718593597412
-18.39429473876953 0.1233673095703125 4.605066299438477
-17.754175186157227 -1.3573226928710938 3.7963624000549316
-19.91683578491211 0.6487274169921875 3.8339972496032715
-18.866893768310547 -1.5896148681640625 2.693082571029663
-17.950733184814453 -2.5877761840820312 4.1970295906066895
-19.0296630859375 4.1151275634765625 4.971518516540527
-19.3770809173584 -1.2279281616210938 1.9335203170776367
-17.683042526245117 -2.8556747436523438 2.580535411834717
-19.16710662841797 3.0396652221679688 2.84444522857666
-18.615192413330078 -2.0413589477539062 1.9236409664154053
-18.732425689697266 6.742706298828125 5.4727935791015625
-18.691795349121094 -1.646240234375 4.8151421546936035
-19.026447296142578 -1.7805938720703125 3.6792588233947754
-18.413990020751953 3.2839889526367188 4.389972686767578
-18.946975708007812 5.417625427246094 5.113686561584473
-18.358577728271484 -1.696563720703125 3.2621054649353027
-19.909900665283203 1.0362701416015625 3.502683162689209
-19.789573669433594 -1.9219894409179688 2.2513835430145264
-19.37579345703125 -1.7988815307617188 2.432804822921753
-18.922351837158203 2.5457077026367188 4.593204975128174
-17.1773624420166 -1.1106643676757812 3.0817461013793945
-18.520980834960938 4.20477294921875 3.253089189529419
-19.606037139892578 -0.5452499389648438 4.450076580047607
-17.639156341552734 -2.2456512451171875 2.4807002544403076
-18.95317840576172 2.8188552856445312 3.9279685020446777
-19.610858917236328 1.692230224609375 3.417682409286499
-18.264232635498047 -1.7244033813476562 4.493308067321777
-18.531402587890625 5.4591217041015625 4.467883110046387
-17.696401596069336 -1.70281982421875 4.097880840301514
-18.612159729003906 -2.034454345703125 3.5644192695617676
-19.655717849731445 -2.06103515625 4.415628910064697
-19.740217208862305 -1.7854843139648438 3.5485265254974365
-19.331960678100586 -2.5807037353515625 2.006497621536255
-19.793964385986328 -2.422698974609375 4.205146789550781
-19.352622985839844 0.8399810791015625 4.421649932861328
-19.670143127441406 -0.419189453125 4.3805131912231445
-17.321044921875 -0.925506591796875 3.954622268676758
-17.367877960205078 -1.7007675170898438 3.760965347290039
-18.315750122070312 0.071044921875 1.9108810424804688
-18.166887283325195 -1.5857772827148438 3.679598569869995
-19.367279052734375 -1.039154052734375 4.640453815460205
-18.616851806640625 -1.676666259765625 2.719733715057373
-17.197341918945312 -1.0322418212890625 2.9549145698547363
-19.925710678100586 -1.6751480102539062 4.172661781311035
-18.94625473022461 3.802581787109375 3.293722629547119
-19.2425537109375 -1.0656509399414062 1.868903636932373
-18.86284065246582 -1.3573226928710938 3.6263298988342285
-17.63353157043457 -1.3573226928710938 3.2314722537994385
-19.157649993896484 -1.5804214477539062 3.050365447998047
-19.724754333496094 1.1420059204101562 4.024974822998047
-18.88931655883789 3.2893600463867188 4.261527061462402
-19.18883514404297 -2.1486358642578125 4.502799034118652
-20.102989196777344 -0.8352737426757812 2.7448527812957764
-19.542617797851562 1.3328704833984375 2.5373754501342773
-17.204835891723633 -1.6818084716796875 2.9094231128692627
-19.543384552001953 -1.6307754516601562 3.4820785522460938
-18.8257999420166 -1.5923080444335938 3.773560047149658
-19.781604766845703 -0.8320236206054688 4.335901260375977
-18.956851959228516 4.689727783203125 5.694835662841797
-19.97785186767578 0.9024734497070312 3.0473899841308594
-18.560470581054688 6.233512878417969 4.814095973968506
-19.009689331054688 4.0698089599609375 4.840696811676025
-19.23373031616211 -0.34136962890625 1.921785831451416
-19.950332641601562 0.1815185546875 3.906306743621826
-19.699668884277344 -2.6777725219726562 2.683520793914795
-18.106510162353516 0.09229278564453125 4.58700704574585
-17.825469970703125 -2.8728561401367188 4.047301769256592
-18.813461303710938 5.411720275878906 4.337471961975098
-17.980539321899414 -1.7522430419921875 4.631078720092773
-18.59008026123047 5.7384033203125 4.3250203132629395
-19.23385238647461 3.0183486938476562 3.6502292156219482
-17.4761962890625 -2.642974853515625 4.007632732391357
-17.708297729492188 1.3447189331054688 4.060127258300781
-19.56584930419922 -2.135498046875 4.481049537658691
-17.88738250732422 1.6660537719726562 2.7780160903930664
-18.934722900390625 2.0895538330078125 4.646631717681885
-19.683269500732422 1.3626022338867188 2.533945083618164
-18.083885192871094 2.3305282592773438 2.709108829498291
-20.07170295715332 -1.4398651123046875 3.092235565185547
-19.495567321777344 1.9983673095703125 2.9287705421447754
-17.562694549560547 1.3320388793945312 3.0536949634552
-19.173927307128906 0.06961822509765625 4.622439384460449
-17.171703338623047 -1.6378631591796875 3.4813692569732666
-18.62360191345215 -2.3171615600585938 1.8058356046676636
-18.983936309814453 3.170013427734375 5.6103363037109375
-17.41417694091797 0.798553466796875 2.895801067352295
-20.05624008178711 -1.6030731201171875 2.623964309692383
-18.603961944580078 7.240997314453125 5.38944149017334
-19.57828140258789 -1.991424560546875 4.4872212409973145
-18.037944793701172 -2.6926040649414062 4.222842216491699
-19.577369689941406 -0.40196990966796875 2.1163735389709473
-17.23590087890625 -0.5670547485351562 2.929109573364258
-17.238357543945312 -0.44568634033203125 2.964442729949951
-18.952964782714844 0.6215057373046875 4.625228404998779
-18.431671142578125 1.1168212890625 4.864413261413574
-19.46483612060547 2.6188735961914062 3.265737295150757
-20.06134796142578 -0.7278289794921875 3.8990139961242676
-20.03076171875 -1.7084808349609375 3.6529603004455566
-18.02587890625 3.0378799438476562 3.288886547088623
-18.990741729736328 4.6497650146484375 4.989130020141602
-17.81014633178711 -2.2494888305664062 2.295543670654297
-18.7208194732666 7.153839111328125 5.256026268005371
-19.349075317382812 1.369842529296875 2.3746557235717773
-17.320316314697266 -2.613433837890625 2.8863682746887207
-19.76190757751465 -1.3573226928710938 2.7397475242614746
-18.698631286621094 2.9829559326171875 5.5838942527771
-17.46383285522461 -1.786041259765625 2.8921096324920654
-17.197467803955078 -1.6735382080078125 3.6367549896240234
-17.78501319885254 -1.789703369140625 4.204202175140381
-18.949901580810547 -1.7789230346679688 3.859306573867798
-19.17823028564453 3.0249404907226562 3.340320348739624
-19.872825622558594 0.8855743408203125 3.8435022830963135
-19.08559799194336 2.5816192626953125 5.22108268737793
-18.309776306152344 1.9197845458984375 4.10409688949585
-19.809202194213867 -2.758758544921875 2.956164836883545
-20.203144073486328 -1.7342605590820312 3.3629798889160156
-18.98345947265625 7.100677490234375 5.269143104553223
-18.91136932373047 1.2489776611328125 2.034085512161255
-17.288970947265625 0.35400390625 3.2606019973754883
-18.45372772216797 -0.6507415771484375 1.803807020187378
-18.425453186035156 1.4101181030273438 4.83989953994751
-18.29853630065918 -1.7658767700195312 3.1811563968658447
-17.371788024902344 -0.483367919921875 2.599898338317871
-17.93235969543457 -2.4868621826171875 2.3100638389587402
-17.6782169342041 -2.6678619384765625 2.661170482635498
-19.79780387878418 -2.0645294189453125 2.273200273513794
-19.642662048339844 0.0317230224609375 2.2282421588897705
-19.489559173583984 -2.5434417724609375 2.0825424194335938
-18.98534393310547 3.184478759765625 5.045904636383057
-17.858610153198242 -1.3573226928710938 3.8583290576934814
-18.7357120513916 -2.1866989135742188 3.3004183769226074
-18.41469955444336 2.8664016723632812 4.977329730987549
-19.310081481933594 2.0534820556640625 2.669552803039551
-19.537189483642578 -1.3573226928710938 3.1806094646453857
-19.884822845458984 -0.6328125 2.39321231842041
-18.441978454589844 2.9533309936523438 4.631883144378662
-17.774091720581055 -1.5468826293945312 4.50886344909668
-18.540746688842773 -1.646728515625 4.053030490875244
-17.557981491088867 -2.63909912109375 2.9492383003234863
-17.76801300048828 0.48575592041015625 4.306829452514648
-18.96369171142578 3.475250244140625 5.660391807556152
-18.40643310546875 -1.6278839111328125 3.8725762367248535
-19.275970458984375 -2.234100341796875 4.634521961212158
-19.555145263671875 0.10445404052734375 2.166200637817383
-18.540069580078125 -1.5764083862304688 3.5644500255584717
-18.684160232543945 6.7076568603515625 4.596466064453125
-18.82964324951172 1.3437347412109375 5.143769264221191
-19.310302734375 -0.214263916015625 4.595920562744141
-17.805910110473633 -1.7195892333984375 2.47910737991333
-18.937198638916016 4.1845550537109375 4.479719161987305
-17.79442596435547 -0.6848831176757812 4.497169494628906
-17.83464813232422 1.3364791870117188 4.045166015625
-18.456157684326172 2.5126571655273438 4.433378219604492
-19.020931243896484 -2.0540924072265625 4.576470375061035
-19.522932052612305 -1.3278427124023438 4.560291290283203
-18.83120346069336 4.9330596923828125 4.225010395050049
-18.544647216796875 0.9948272705078125 1.9902788400650024
-18.432708740234375 1.71710205078125 4.970365047454834
-19.874176025390625 -2.1289901733398438 3.8651504516601562
-20.04960823059082 -1.7371292114257812 2.6157004833221436
-19.073917388916016 2.850128173828125 5.477635383605957
-18.997488021850586 -2.7472076416015625 2.126652240753174
-20.15949249267578 -1.7202072143554688 2.9104719161987305
-18.38501739501953 3.2492294311523438 4.792403221130371
-17.288406372070312 -1.304931640625 3.1500284671783447
-18.33796501159668 -1.3573226928710938 4.551424503326416
-18.86079978942871 -1.6488113403320312 2.120645046234131
-18.221210479736328 -1.7923126220703125 2.189736843109131
-18.611587524414062 3.612152099609375 5.662798881530762
-19.52637481689453 2.12823486328125 3.4773552417755127
-17.804134368896484 1.8382797241210938 3.529055118560791
-17.35910415649414 -2.1339797973632812 3.3948886394500732
-19.82508087158203 1.3853912353515625 2.7793407440185547
-18.78799819946289 0.5223846435546875 5.052487850189209
-18.13834571838379 -2.9318084716796875 4.29747200012207
-18.93280792236328 1.867340087890625 4.439800262451172
-19.70479965209961 -2.5044784545898438 2.6117684841156006
-19.045242309570312 -1.3573226928710938 3.5894761085510254
-18.982101440429688 -1.30950927734375 4.7831926345825195
-18.486724853515625 2.4951095581054688 4.053318500518799
-17.874677658081055 -2.4923629760742188 2.069838047027588
-20.125818252563477 -2.3598251342773438 3.0272908210754395
-17.909099578857422 -2.7287826538085938 4.423480987548828
-18.378570556640625 3.0301361083984375 3.1659767627716064
-18.432037353515625 2.2684783935546875 4.679220676422119
-18.58263397216797 -1.3573226928710938 4.607895851135254
-18.59609603881836 -1.7512893676757812 3.1729795932769775
-19.65756607055664 -1.7171478271484375 2.434206962585449
-19.07552146911621 6.7469482421875 5.252250671386719
-19.62822723388672 -1.5785369873046875 4.313460826873779
-19.751760482788086 -2.3426513671875 2.565751075744629
-17.392486572265625 0.9716110229492188 3.4601211547851562
-17.429283142089844 0.6970062255859375 3.7693376541137695
-18.940536499023438 1.7942047119140625 4.539385795593262
-19.606460571289062 -0.726104736328125 2.096689462661743
-18.322795867919922 -1.3573226928710938 3.469940662384033
-18.399765014648438 4.951896667480469 4.972990989685059
-19.325895309448242 -1.8875045776367188 2.0527427196502686
-17.380781173706055 -2.37225341796875 2.6134002208709717
-18.706504821777344 0.30248260498046875 5.057529449462891
-17.982460021972656 1.5107803344726562 2.464334011077881
-18.006511688232422 0.475067138671875 4.478925704956055
-18.78533172607422 1.6828460693359375 5.220755577087402
-17.249420166015625 -0.9477691650390625 3.784787893295288
-17.688913345336914 -2.929443359375 3.912673234939575
-18.086997985839844 0.43564605712890625 2.040484666824341
-18.95992088317871 -1.850128173828125 4.643357276916504
-19.87762451171875 1.3765335083007812 2.9315435886383057
-17.950382232666016 -0.49652862548828125 1.997816801071167
-18.741268157958984 6.091156005859375 5.558989524841309
-18.787384033203125 1.3519821166992188 2.0360283851623535
-18.61834716796875 3.773223876953125 3.0227832794189453
-18.78131866455078 0.7820205688476562 1.95707106590271
-17.476726531982422 -2.7447738647460938 3.933943271636963
-18.4447021484375 0.6935653686523438 4.934050559997559
-17.33106231689453 -1.7056503295898438 2.9098148345947266
-17.5433349609375 1.15057373046875 2.7051808834075928
-18.853118896484375 4.0517578125 3.9340286254882812
-19.875267028808594 0.1135711669921875 4.061707019805908
-19.755817413330078 1.5078659057617188 3.411623239517212
-18.791996002197266 -0.9356536865234375 1.7720524072647095
-20.089717864990234 -1.8766632080078125 3.8481194972991943
-17.39404296875 -0.6492843627929688 2.5216944217681885
-18.12824821472168 -1.7342376708984375 4.108224868774414
-18.589874267578125 7.1762542724609375 4.601733207702637
-19.881078720092773 -2.9125137329101562 3.435549020767212
-20.193344116210938 -1.1565399169921875 3.1255106925964355
-18.229778289794922 -2.5398483276367188 4.629936218261719
-17.251514434814453 -1.8284378051757812 3.779202461242676
-18.969894409179688 0.38237762451171875 4.620774745941162
-18.785770416259766 1.8515167236328125 2.3815813064575195
-18.23393440246582 -2.7542800903320312 4.569467067718506
-17.381420135498047 -0.9838714599609375 2.5019874572753906
-17.27303123474121 -2.655242919921875 3.24783992767334
-20.19024658203125 -0.7633514404296875 3.3729496002197266
-18.572757720947266 3.9183883666992188 3.763695001602173
-17.594444274902344 0.8124618530273438 2.521078109741211
-17.90882110595703 -1.7301712036132812 2.1008923053741455
-17.550636291503906 -0.4625091552734375 4.234301567077637
-18.50978660583496 7.085418701171875 4.618066787719727
-18.711669921875 6.566902160644531 5.492508411407471
-18.421127319335938 2.1635665893554688 2.469393253326416
-19.42478370666504 -2.3775100708007812 4.301681995391846
-18.185401916503906 -0.8619613647460938 4.718653678894043
-19.713783264160156 -1.909423828125 4.189008712768555
-18.514118194580078 3.1699371337890625 3.788539171218872
-19.22032928466797 0.7326278686523438 4.51026725769043
-19.29281234741211 2.5772552490234375 3.7629590034484863
-19.610870361328125 1.7643508911132812 3.293421745300293
-20.157184600830078 -1.0548934936523438 3.654254913330078
-19.489456176757812 1.45947265625 2.5398526191711426
-19.08542823791504 -1.3573226928710938 4.111340522766113
-17.661439895629883 -1.879730224609375 2.1645894050598145
-18.93354034423828 4.862396240234375 4.764313697814941
-18.32244110107422 -1.3573226928710938 4.144711494445801
-19.772289276123047 -0.8809967041015625 2.222726345062256
-17.67760467529297 -1.7671661376953125 3.383929491043091
-19.945945739746094 -0.5583114624023438 2.493164300918579
-17.17511749267578 -0.740234375 3.3424105644226074
-18.440032958984375 -0.9749908447265625 1.7848743200302124
-19.912860870361328 1.370880126953125 3.065171241760254
-17.370586395263672 -2.600006103515625 2.715926170349121
-18.95407485961914 1.1533050537109375 4.552183628082275
-18.019512176513672 -2.7865524291992188 2.0962860584259033
-19.698989868164062 0.16223907470703125 2.2969748973846436
-18.576377868652344 0.7844619750976562 1.9582347869873047
-19.173885345458984 -1.3554763793945312 4.725461959838867
-19.747272491455078 -1.3573226928710938 2.390331268310547
-17.96628761291504 -2.0280380249023438 2.1226980686187744
-19.341094970703125 -1.3573226928710938 3.4202804565429688
-18.924205780029297 -2.1928558349609375 1.8079217672348022
-18.749452590942383 6.926170349121094 5.251841068267822
-20.015920639038086 -1.8679275512695312 3.6537561416625977
-18.249534606933594 3.026947021484375 3.4806933403015137
-18.81775665283203 -1.5519485473632812 4.801863670349121
-19.892818450927734 -2.30224609375 2.431884527206421
-19.502792358398438 -1.626312255859375 4.190508842468262
-18.712181091308594 6.891593933105469 5.450550556182861
-18.893280029296875 3.0275497436523438 3.702667713165283
-18.669147491455078 -1.7503509521484375 4.293776512145996
-18.904502868652344 0.387908935546875 4.962205410003662
-17.315040588378906 0.21710968017578125 2.9488160610198975
-17.943586349487305 -2.2188644409179688 2.1793549060821533
-19.43966293334961 -0.6884613037109375 1.9880797863006592
-18.266855239868164 -1.3573226928710938 2.2994654178619385
-18.69538116455078 1.3393096923828125 5.176942825317383
-18.95334243774414 3.478485107421875 3.075467586517334
-18.80343246459961 -1.8169403076171875 2.3761844635009766
-17.650161743164062 -0.6188430786132812 2.2008421421051025
-18.377525329589844 4.274986267089844 4.794715881347656
-18.303180694580078 -2.3638992309570312 1.8624762296676636
-18.721778869628906 7.376991271972656 5.289585113525391
-18.604995727539062 5.1479034423828125 3.9125072956085205
-19.064655303955078 3.3028793334960938 3.3392438888549805
-19.765151977539062 -2.3961257934570312 3.917440891265869
-18.439735412597656 6.785820007324219 4.727748870849609
-17.960338592529297 -1.66705322265625 2.791616916656494
-17.872215270996094 1.0550918579101562 4.284369945526123
-18.2318115234375 -1.0145721435546875 1.8365113735198975
-17.777673721313477 -1.3573226928710938 3.1703641414642334
-19.176475524902344 1.0845413208007812 4.474753379821777
-17.79654884338379 -2.7533493041992188 2.2283291816711426
-17.39581298828125 -0.6817092895507812 4.059476375579834
-18.45363426208496 -1.697723388671875 4.18968391418457
-17.996723175048828 -1.25732421875 4.6417036056518555
-19.819496154785156 -0.22893524169921875 4.190959930419922
-19.119911193847656 5.096168518066406 5.700392723083496
-19.24403190612793 -1.8077621459960938 3.6482601165771484
-19.141836166381836 -1.8085708618164062 3.2872605323791504
-18.79005241394043 7.037078857421875 5.443140983581543
-17.311019897460938 0.37255859375 3.0634007453918457
-19.966798782348633 -2.3078460693359375 3.128465414047241
-20.035682678222656 0.5931777954101562 3.3801212310791016
-18.684402465820312 5.9762420654296875 4.21760368347168
-18.253284454345703 -1.6445770263671875 1.8238890171051025
-18.447174072265625 1.7462310791015625 2.3878984451293945
-18.369953155517578 3.8179779052734375 4.631780624389648
-20.05307388305664 -0.0841522216796875 2.8481407165527344
-18.750009536743164 6.967567443847656 5.098687171936035
-17.37903594970703 -1.6225051879882812 2.4938528537750244
-18.94709587097168 -1.3573226928710938 2.259047031402588
-17.843687057495117 -2.1527328491210938 4.296343803405762
-18.82763671875 4.664398193359375 4.0774641036987305
-18.075328826904297 -1.820770263671875 3.622628927230835
-19.42278289794922 2.4398193359375 2.9506430625915527
-17.18463897705078 -0.8068923950195312 3.061180591583252
-19.628089904785156 0.6733932495117188 4.2465009689331055
-18.383201599121094 3.094268798828125 2.967118263244629
-18.32465362548828 -0.18212890625 4.6900129318237305
-19.95105743408203 -2.8687210083007812 3.6061978340148926
-17.471050262451172 -2.4690093994140625 3.0628156661987305
-17.505815505981445 -1.9424285888671875 2.571362018585205
-19.019550323486328 -0.20615386962890625 4.699213981628418
-20.052410125732422 0.24236297607421875 3.6079351902008057
-18.417015075683594 2.3722610473632812 5.0014519691467285
-18.99217987060547 4.865348815917969 5.125725269317627
-18.254608154296875 1.5935821533203125 2.433681011199951
-17.95514488220215 -1.6313018798828125 3.4962358474731445
-17.483787536621094 -0.0033721923828125 4.074577331542969
-17.64784812927246 -2.548919677734375 4.267221927642822
-19.48980140686035 -2.2190170288085938 2.234175205230713
-17.545196533203125 -1.4906768798828125 2.272834300994873
-19.09571075439453 6.9718170166015625 4.834009170532227
-18.59380340576172 2.9337921142578125 2.617673873901367
-19.087051391601562 2.7220001220703125 3.874492645263672
-18.49793243408203 -1.1412811279296875 1.7776215076446533
-19.097564697265625 2.5316085815429688 2.605816602706909
-17.596912384033203 -1.6190261840820312 3.029298782348633
-19.193439483642578 -1.3573226928710938 3.1607401371002197
-19.35214614868164 1.8479690551757812 2.6661386489868164
-18.489376068115234 3.0299148559570312 2.89109206199646
-20.09600067138672 -1.0031585693359375 3.8542778491973877
-18.87813949584961 6.933319091796875 5.246947288513184
-19.720134735107422 0.9008331298828125 2.477811574935913
-19.707738876342773 -1.7783432006835938 4.229787826538086
-18.9002685546875 2.2448883056640625 4.100515365600586
-17.288637161254883 -2.6669387817382812 3.404449462890625
-17.533632278442383 -1.3573226928710938 2.7877259254455566
-18.863262176513672 -1.791656494140625 2.8740594387054443
-18.720808029174805 -1.9556503295898438 3.619957208633423
-17.619121551513672 -2.6991806030273438 2.771735191345215
-18.537626266479492 -1.6243362426757812 4.521055698394775
-19.348709106445312 2.8201217651367188 3.0896053314208984
-18.56171417236328 7.219062805175781 4.739258766174316
-19.73452377319336 -1.6129302978515625 2.1781373023986816
-18.90991973876953 0.8907928466796875 4.980875492095947
-18.630741119384766 4.487266540527344 3.3654370307922363
-17.548377990722656 -0.28420257568359375 2.3683714866638184
-17.496261596679688 0.5546112060546875 3.951120615005493
-19.556304931640625 -1.7229232788085938 3.668731212615967
-18.917198181152344 3.3531875610351562 4.473486423492432
-18.02640151977539 2.8184814453125 3.5123205184936523
-19.892860412597656 -1.5696640014648438 3.9848527908325195
-18.44635772705078 5.258277893066406 4.8445820808410645
-18.359642028808594 -1.719940185546875 4.392868995666504
-19.71280288696289 -0.7354660034179688 2.182715892791748
-19.359073638916016 2.6279754638671875 3.004075050354004
-19.5827579498291 -2.6931991577148438 4.3365325927734375
-18.74559783935547 3.4466323852539062 2.939878225326538
-18.513687133789062 6.026397705078125 4.9382004737854
-18.355087280273438 -0.8004989624023438 1.804323434829712
-17.381816864013672 -2.2938919067382812 3.2438766956329346
-18.55323028564453 2.5676956176757812 2.505676507949829
-18.930288314819336 -1.8004989624023438 3.4223034381866455
-18.318939208984375 -1.3468551635742188 4.763864517211914
-19.112600326538086 -1.7700042724609375 4.604885578155518
-19.984291076660156 -0.14263916015625 3.914210319519043
-18.833240509033203 -1.3050613403320312 4.678384780883789
-17.43793296813965 -1.7145004272460938 3.098126173019409
-18.783767700195312 6.02557373046875 4.554795742034912
-18.834888458251953 1.1418685913085938 2.0118203163146973
-19.66412925720215 -2.5339279174804688 4.319827079772949
-19.927562713623047 1.3681793212890625 3.2104382514953613
-18.02729606628418 -2.435272216796875 4.329339981079102
-19.0323486328125 3.8727340698242188 4.878665447235107
-18.940567016601562 4.0208740234375 5.697540283203125
-18.887990951538086 -1.3573226928710938 4.212514400482178
-20.18433952331543 -1.8349761962890625 3.480349063873291
-19.972030639648438 -2.05706787109375 2.5091660022735596
-19.732620239257812 0.28314971923828125 4.212823867797852
-18.200424194335938 0.41240692138671875 1.9874799251556396
-18.56393814086914 6.707794189453125 4.796863555908203
-18.413116455078125 -0.39493560791015625 4.736186981201172
-18.24213409423828 -1.7014694213867188 2.6159067153930664
-18.875125885009766 5.8428192138671875 4.946890354156494
-18.139781951904297 -1.8004226684570312 3.8746700286865234
-18.514652252197266 -1.6379470825195312 2.028927803039551
-18.877708435058594 5.236457824707031 4.617762088775635
-19.338565826416016 -1.9730682373046875 4.46892786026001
-18.664642333984375 -1.0195083618164062 1.7623381614685059
-17.243526458740234 -1.5022201538085938 3.7831082344055176
-18.417739868164062 4.459815979003906 4.647976875305176
-17.76776123046875 1.7753448486328125 3.4033000469207764
-18.765960693359375 6.237548828125 4.589820861816406
-19.63388442993164 1.5899581909179688 3.2107605934143066
-17.254573822021484 -1.1399993896484375 2.7627878189086914
-20.202816009521484 -1.8132400512695312 3.2547974586486816
-20.144954681396484 -0.9382781982421875 2.879859685897827
-18.097766876220703 -1.7721786499023438 2.6452012062072754
-18.937786102294922 1.9760513305664062 5.005958557128906
-17.22478485107422 -2.3096160888671875 3.446274757385254
-17.545333862304688 -1.3573226928710938 3.1400039196014404
-19.842132568359375 -1.6570358276367188 3.6385979652404785
-18.14822769165039 -1.8501434326171875 1.8627738952636719
-17.981191635131836 -1.618255615234375 1.9335169792175293
-19.21295166015625 4.5799713134765625 5.720796585083008
-19.416107177734375 -1.3573226928710938 2.971204996109009
-18.99256134033203 -1.7466506958007812 3.5275800228118896
-17.70709228515625 -0.342803955078125 2.191209554672241
-18.70732307434082 -1.5840911865234375 2.5916476249694824
-18.17992401123047 2.4622039794921875 3.915792465209961
-18.496410369873047 -1.9471282958984375 1.9172240495681763
-20.062721252441406 -1.9123687744140625 3.301866292953491
-19.93182373046875 -2.3032379150390625 2.9329068660736084
-17.559181213378906 0.776092529296875 4.000726699829102
-18.949077606201172 2.627410888671875 4.937375068664551
-19.712844848632812 -1.6859893798828125 3.670454502105713
-18.65640640258789 7.278861999511719 4.971170902252197
-18.861957550048828 2.823211669921875 5.516667366027832
-20.19350814819336 -1.6552505493164062 3.4907031059265137
-18.369163513183594 -1.9071197509765625 3.4909474849700928
-18.871509552001953 -1.5511550903320312 4.667098522186279
-18.209918975830078 1.312042236328125 4.445859909057617
-17.587543487548828 -2.8286895751953125 3.6465346813201904
-18.931995391845703 2.6054153442382812 4.722064018249512
-18.13442611694336 -1.7434616088867188 2.4411017894744873
-17.849040985107422 2.0531997680664062 3.552166223526001
-18.966140747070312 7.021659851074219 5.025149345397949
-19.619205474853516 -0.5982818603515625 2.124328136444092
-18.28849220275879 -1.7300796508789062 3.8264989852905273
-18.075546264648438 2.3860244750976562 3.836712121963501
-18.937034606933594 2.3741226196289062 2.504153251647949
-19.63030242919922 1.5395355224609375 2.789135694503784
-18.898666381835938 2.6645126342773438 4.332835674285889
-17.30542755126953 -2.7100753784179688 3.109347343444824
-18.978343963623047 7.4473419189453125 4.7416605949401855
-18.992740631103516 -1.6552276611328125 2.6363577842712402
-19.022724151611328 2.19354248046875 4.069601058959961
-17.46026611328125 -0.35848236083984375 4.107161045074463
-17.965709686279297 2.679779052734375 3.228170394897461
-18.362895965576172 2.3570480346679688 2.521894931793213
-18.21483612060547 2.8113937377929688 3.8008551597595215
-17.68808364868164 1.3387374877929688 3.836078643798828
-18.541160583496094 4.6293792724609375 5.655977249145508
-19.62664794921875 1.3295745849609375 4.101390361785889
-17.540973663330078 -0.29058837890625 4.1943745613098145
-17.433834075927734 -2.4858474731445312 2.548053503036499
-18.161109924316406 -1.3479537963867188 4.716002464294434
-19.936185836791992 -2.059661865234375 4.110117435455322
-18.968544006347656 3.292266845703125 4.815031051635742
-19.144508361816406 -2.5335540771484375 2.156764030456543
-17.80514144897461 -2.0677719116210938 2.2542061805725098
-19.486337661743164 -1.783660888671875 2.1219067573547363
-18.088279724121094 -1.3573226928710938 4.409698009490967
-17.428077697753906 -0.10668182373046875 2.5776050090789795
-18.534954071044922 -1.5819015502929688 2.7878010272979736
-19.36046028137207 -1.7437591552734375 2.744647741317749
-18.876941680908203 6.9568023681640625 4.778229236602783
-19.536666870117188 -2.6961517333984375 4.04191780090332
-18.00621795654297 -2.2208175659179688 1.9583054780960083
-18.050704956054688 3.0416259765625 3.118156671524048
-20.066186904907227 -1.4236984252929688 3.9246175289154053
-18.927001953125 2.2969741821289062 5.180580139160156
-18.523128509521484 0.4013824462890625 5.0300469398498535
-18.837970733642578 3.6818771362304688 3.036691904067993
-18.91852569580078 0.8068466186523438 4.590887069702148
-17.45281219482422 -1.9913177490234375 4.147765159606934
-19.486000061035156 0.9995880126953125 4.301247596740723
-18.641220092773438 -0.8955078125 1.765800952911377
-18.699665069580078 1.7694549560546875 5.277240753173828
-18.938255310058594 0.8429412841796875 4.778557777404785
-18.802915573120117 -1.2995681762695312 4.800966262817383
-18.610212326049805 -1.3573226928710938 4.329285621643066
-17.983413696289062 -0.441192626953125 4.584054946899414
-18.806846618652344 2.6586380004882812 5.441407203674316
-20.04798126220703 -0.5800704956054688 3.8914575576782227
-18.03893280029297 1.9006881713867188 2.649554967880249
-18.632587432861328 0.0426483154296875 5.028302192687988
-18.577402114868164 -1.7820205688476562 4.797238349914551
-17.801651000976562 1.6195907592773438 3.6480729579925537
-17.496063232421875 -1.639739990234375 3.6463067531585693
-18.073244094848633 -1.3573226928710938 4.253859996795654
-20.02407455444336 -2.0869216918945312 3.3193225860595703
-19.387104034423828 -1.3810043334960938 1.9372656345367432
-17.166362762451172 -1.4451828002929688 3.1617541313171387
-18.040267944335938 -1.3573226928710938 2.292205810546875
-18.887296676635742 7.494987487792969 5.384995937347412
-18.54506492614746 -1.6625289916992188 2.189460515975952
-18.151775360107422 0.26294708251953125 1.9814608097076416
-18.502971649169922 -1.7099075317382812 2.7605340480804443
-18.484615325927734 3.2072677612304688 3.9556009769439697
-17.375667572021484 -1.1638565063476562 2.5091989040374756
-18.418827056884766 -1.593292236328125 2.880556106567383
-18.98267364501953 7.144691467285156 4.727035999298096
-20.035720825195312 0.5576629638671875 3.136140823364258
-18.277137756347656 1.5329437255859375 2.288644552230835
-17.657079696655273 -2.67620849609375 3.7978525161743164
-19.026222229003906 5.658958435058594 5.649616241455078
-18.729084014892578 3.0234451293945312 2.7712931632995605
-17.441024780273438 -0.178558349609375 4.033179759979248
-19.247421264648438 -1.5861282348632812 3.3707778453826904
-18.601547241210938 -0.6589889526367188 1.7883871793746948
-19.247051239013672 2.6004104614257812 2.738220691680908
-17.556743621826172 -1.3573226928710938 2.409024238586426
-19.202186584472656 0.221710205078125 4.597353458404541
-19.74957275390625 1.4129257202148438 2.970592737197876
-18.921306610107422 2.1593246459960938 4.5204877853393555
-18.8667049407959 -2.0458831787109375 4.7646284103393555
-19.898807525634766 -1.4592819213867188 2.5848276615142822
-19.745391845703125 1.21795654296875 2.5806446075439453
-19.08147430419922 7.133567810058594 5.47340202331543
-18.60146713256836 3.1566543579101562 5.615211486816406
-18.55498504638672 4.9525146484375 4.1005353927612305
-19.073650360107422 -1.3573226928710938 2.861698865890503
-18.472042083740234 1.7819747924804688 5.169966697692871
-17.64988899230957 -2.4488067626953125 3.9601707458496094
-19.850021362304688 -1.3573226928710938 3.407519817352295
-18.410194396972656 1.2111740112304688 4.608728885650635
-19.828163146972656 -2.4626846313476562 2.8139257431030273
-19.7894287109375 -2.6064224243164062 4.165103912353516
-18.140727996826172 -1.3573226928710938 4.152398109436035
-18.90155792236328 5.31072998046875 4.782750606536865
-17.330596923828125 -0.6669540405273438 2.6364963054656982
-19.443714141845703 0.1912994384765625 2.093888759613037
-18.51227569580078 4.674827575683594 4.210226058959961
-19.048397064208984 6.814353942871094 4.88866662979126
-18.49261474609375 5.196693420410156 4.559207916259766
-19.634361267089844 -2.667724609375 3.924161195755005
-18.39749526977539 3.6619720458984375 4.438962936401367
-20.08283805847168 -1.7364578247070312 3.3386857509613037
-18.895675659179688 3.6949844360351562 3.481994152069092
-18.990737915039062 5.1282196044921875 5.122655868530273
-17.581218719482422 -2.0777435302734375 2.258352518081665
-17.712371826171875 1.4552459716796875 3.7982499599456787
-18.232892990112305 -1.517669677734375 1.952864170074463
-18.19036865234375 -0.02618408203125 4.632360458374023
-18.33344268798828 1.2634201049804688 4.490841865539551
-19.24737548828125 1.6501312255859375 4.042703628540039
-18.924209594726562 1.623046875 4.179565906524658
-17.801300048828125 1.62615966796875 3.8424766063690186
-17.76265525817871 -2.6072540283203125 2.195612668991089
-17.913776397705078 -1.3573226928710938 3.512516498565674
-18.627573013305664 6.709419250488281 5.108962059020996
-17.81010627746582 -1.3057937622070312 4.381466388702393
-18.470352172851562 4.335685729980469 4.29080867767334
-19.13461685180664 -2.6853866577148438 2.1715989112854004
-17.475444793701172 1.1402130126953125 2.859495162963867
