# .PCD v0.7 - Point Cloud Data file format
VERSION 0.7
FIELDS x y z
SIZE 4 4 4
TYPE F F F
COUNT 1 1 1
WIDTH 1581
HEIGHT 1
VIEWPOINT 0 0 0 0 0.5 0 0
POINTS 1581
DATA ascii
7.6620865 -0.010626197 4.7090249
19.487749 2.445796 3.1997588
3.4882212 1.2324219 3.1802542
26.654446 10.297462 6.04111
19.016562 4.0389547 5.703052
9.2588215 -2.2706115 2.1040204
7.8160124 -5.9735951 2.0072734
12.717609 2.0510516 5.150002
18.384254 3.3275847 4.6662064
24.937107 7.291985 6.1877356
4.9501314 -0.3099176 0.83385241
22.073122 7.4072189 5.8827872
18.240284 -2.3533857 1.8800271
20.156696 -0.48522627 3.4191527
4.6191406 -6.2770929 4.1262259
26.237448 7.6959991 6.2440505
8.603159 -5.9297051 3.674186
10.945086 4.2082977 4.3644295
10.398013 4.2098227 4.4968929
5.1948032 0.50182837 2.1039019
23.781885 6.0407996 5.7261062
9.1663942 -1.9708612 4.8710289
20.012585 5.4190531 5.2348242
7.8443928 -1.5134072 4.7834158
5.1088066 -0.094549775 2.5374682
14.383847 0.99748218 4.6686673
4.2070947 2.887347 3.8099413
24.35611 9.4929333 5.941781
6.0433035 0.7886219 4.4527035
28.958332 10.172678 6.5936089
17.998343 1.7591636 3.9093096
19.37705 -2.7705374 2.101459
13.816894 1.8112955 5.267869
27.159754 8.9764547 6.0010867
5.1353478 -2.5705862 3.2891221
14.399582 5.3676195 4.4248481
10.236163 -8.5214424 2.9775951
9.9865608 0.28104666 4.9358854
9.801177 3.6069088 3.888798
10.424877 3.2650757 3.971451
10.647324 -6.4845729 2.68504
21.766966 7.4782705 5.8292494
10.566353 -6.6247954 2.9806619
17.960836 -1.8179668 2.7747796
4.019659 3.02227 3.5661526
7.8012743 -8.5050011 2.7278731
7.799139 -7.4289217 2.2501731
17.442841 4.4733839 5.547307
17.38028 -2.1794364 3.0331514
13.748462 3.6331959 4.6239824
20.845636 4.8322153 5.3522348
18.58227 5.036458 3.9877791
18.392677 -1.4829221 4.7859101
3.9803197 3.2211237 3.6529241
8.8361778 -2.2840815 4.2814064
11.921432 1.5496374 5.0892649
7.4926124 2.2437611 4.4211025
18.371819 4.5323486 5.2129078
19.22827 3.0688715 3.6412904
4.7635517 0.4127537 2.7751989
4.6845145 1.27871 3.3933306
3.3970375 -6.906651 3.248867
18.188692 1.5924377 4.1019788
14.3951 3.5207405 4.6657143
10.748943 5.0832458 4.1703997
10.302428 -8.7951508 1.9711273
11.798899 4.089952 4.537724
8.8949604 -5.3590503 1.0571077
5.3633747 2.8640323 3.3677101
14.160812 5.1256261 5.0114565
11.382946 -2.2439489 4.6413403
17.528805 -2.655669 3.4033153
17.7286 -1.9692316 4.2545619
23.684473 7.9535346 6.0501947
19.419205 5.070653 5.7300816
4.4450622 2.8967605 2.8280709
6.7258101 0.55524027 3.6664007
12.459904 0.90566361 4.4293995
5.2918386 2.9933729 3.9632943
8.6515312 -7.1651182 3.800365
26.085407 9.7773094 5.9538326
17.165058 -1.3703835 3.182529
19.358576 -2.6519339 2.040997
8.3933678 -8.2277908 1.1178923
20.885883 6.8501778 5.3659291
4.0488958 -0.10001767 3.1715825
14.552402 1.2408243 5.3247442
14.913119 5.6107059 4.4537239
7.9897866 -5.7097521 3.0915155
16.991091 2.9238327 5.5361004
10.431175 -7.9690542 1.7853442
12.931999 2.7649646 5.1267443
18.725853 2.065711 5.3899689
9.0451908 -2.7975056 2.8593535
9.4847193 -2.8270044 4.2363043
8.4901838 3.1187382 3.8552587
17.873356 -1.7518759 2.4711442
15.495482 0.52284068 5.0988655
8.6972704 -7.357336 2.7799954
11.370901 1.9283471 4.9988976
9.7150211 -8.5319862 3.4497733
19.834454 3.279928 5.1688762
7.6000257 2.0983787 4.0861945
11.950888 -1.7368498 4.5878325
14.286139 5.6502156 3.8428669
15.810698 4.5069656 5.34167
22.595444 7.5792503 5.5394883
19.557758 -0.51140398 4.485208
16.554987 6.4670072 4.4925051
18.394073 3.4169226 5.3676929
11.686802 2.1199498 4.3746028
3.4846497 -7.4650617 3.1253991
12.276842 2.3324594 5.0783648
14.224596 5.7855539 4.4515009
15.292078 4.9210386 5.2085991
27.348385 8.6250896 6.3797483
4.7776051 -6.5720882 3.8137474
17.296068 4.3874998 5.11024
28.050676 8.6771297 6.3504634
10.080341 -4.888824 1.4420228
5.6537886 -1.9914 4.6062536
10.912326 2.384443 4.3404851
8.8807335 -2.6654615 4.2124915
13.356049 4.9858599 4.2902355
7.45292 -4.1512127 3.9137943
17.947569 1.9432199 5.2276497
5.1088061 -0.13002577 2.9284911
14.033657 -0.53237927 4.5640411
7.1418743 0.98710239 4.5648003
5.0516148 -5.666729 3.3607392
20.455154 4.2441521 5.3431845
20.23703 5.5465226 5.7973795
22.28488 6.5624332 5.9703388
3.7475948 0.59485757 3.1789525
4.7338505 1.6689628 4.1297126
19.593683 3.1773522 5.3515029
16.614676 6.1406045 5.0300984
17.050648 6.6333871 5.239048
8.3473129 2.2848167 4.2657089
9.6934357 -7.3573184 3.2370725
17.790251 5.8380198 5.4747353
14.109129 6.484952 4.5087223
4.4690046 2.9952731 3.079073
4.5977259 0.10814951 0.66153491
10.750286 3.6480467 4.2276716
6.7171659 -3.6187863 4.6474314
12.63591 -1.3688326 4.7398839
5.1016316 -1.0807526 4.5112896
16.144436 3.9971671 4.8328967
4.7658477 -0.47883037 0.58371019
8.8554182 -8.0272503 2.3883243
8.4922056 -0.38218132 4.8138194
4.8163447 2.0611606 3.499409
10.346154 -5.1652865 3.0226917
13.435034 2.2707529 5.2204094
18.442005 1.3613575 4.0885191
9.3118334 0.5819006 4.2051463
5.9777255 -0.30372214 3.4892569
7.3314838 2.7965028 3.0428333
18.934746 2.1007142 2.4552219
15.992785 3.4492071 5.4386101
3.5050895 0.45064461 3.1309242
20.101406 -1.7153291 2.7178254
9.5161266 -8.8073931 1.0712562
14.998266 4.4676361 4.7908611
4.5169644 0.0012624962 1.2957151
19.532951 -2.3418794 2.3180511
8.6757774 -5.2944679 3.6173091
19.227974 -1.7337101 2.8238053
9.3056984 -0.21857239 3.5517578
4.3886137 3.0959711 3.7809765
16.598391 5.7200589 4.6646776
19.281637 -1.732819 4.3064113
15.619579 2.4499037 5.4240627
5.8737907 2.1597457 3.6680903
20.860582 6.3648024 5.3352075
5.970953 -2.9573464 3.4560039
18.215139 3.5371716 5.0578947
10.319242 -6.4320354 1.4248203
9.016819 -3.141047 2.9964514
18.642132 5.8883123 5.3892751
3.3607848 -1.5105741 4.3542423
8.6732397 -5.7725368 1.067019
15.199465 1.0162305 4.7952051
20.060905 -2.5814433 2.9035215
7.8845277 -5.1124935 2.4791608
11.927475 1.9358282 4.3860488
19.198311 6.521718 5.3560281
7.9577217 3.5057576 3.3024645
18.685976 6.3300977 5.312057
17.330584 -2.755162 3.0089304
3.6424105 -0.82043648 3.0485399
19.251085 -1.7289193 3.5588839
4.4826531 -0.33397239 0.7917819
15.796713 3.204597 4.783309
9.299654 -5.939301 4.1173072
9.5243511 2.7589259 3.9337089
20.153507 -1.8889554 3.6341474
29.834923 10.989377 7.6032581
9.3645983 -8.1144848 0.88351405
11.433407 -0.99661702 5.0292339
7.3905454 3.4075654 4.2147627
13.993468 2.7051682 4.8320618
9.1109934 -0.91386753 3.0062206
19.810551 3.8838849 5.7165365
9.7304974 -8.26367 3.5512338
4.3769321 -0.8788318 3.177855
16.95443 4.1028109 4.9042506
16.861189 3.8271651 4.8966403
8.3270206 -7.9639754 1.136009
22.836414 7.6194592 5.9699669
6.1740761 -4.7686672 3.5884595
13.009847 -0.54178262 5.0914812
12.299408 4.6374216 3.9145997
11.666021 -0.50383586 4.3729572
6.524899 3.0786471 4.1416912
19.806225 7.0927324 5.3196049
5.776515 -4.4779739 4.5355473
13.948039 3.5144119 4.4991636
13.822021 4.8838177 4.9930582
8.104887 -2.1881659 4.8025799
11.145905 3.5634172 4.4413981
9.2686672 -7.357316 3.5784795
9.6888189 2.4860578 4.6173763
11.048595 0.59832925 5.030529
3.3341913 1.3091251 4.018724
14.169563 5.7354393 3.4670482
9.0441895 -2.4303021 4.5662069
26.943457 7.9453559 6.2380743
20.165325 -1.1644635 2.9396601
13.483519 3.5007696 4.5955296
8.3810358 -1.4193689 3.9240408
9.0903339 -7.3573313 3.1130579
19.948494 0.051510856 2.6322522
9.6044769 0.39646572 4.1216984
9.1925621 -3.4227719 2.179112
14.443983 3.3102179 4.6596794
6.6948085 -5.3134642 4.0702019
17.360685 -2.0141246 2.5659332
7.5936155 2.5799837 3.4588084
14.785699 2.0929308 4.6781278
18.214327 1.0362701 4.3083019
18.630804 3.0479474 5.5095825
17.839071 6.5255356 4.9364519
10.485798 -8.3992748 1.694206
16.010601 2.3621924 5.4545512
18.415159 0.19524014 4.7595277
26.046829 9.9263601 5.965313
14.860168 5.8941846 4.9184175
15.688643 5.4864874 4.5067596
4.7602482 2.5004063 3.5613518
17.500547 1.358299 2.8825965
23.580259 8.353898 5.668396
4.5690928 2.5536435 3.543566
9.4573536 -2.8644876 4.752677
5.2952371 -4.4404397 4.5297928
10.274315 -5.6102653 3.2438016
9.410244 -2.0757825 4.1517882
9.3435812 2.3302946 4.128046
20.342503 6.3762202 5.7556562
18.595917 3.9623141 3.0782218
6.7384386 -0.41822502 4.6393633
15.483122 0.5165928 4.9509315
4.5089765 1.6507179 3.8933597
18.445505 2.1554198 5.2436318
9.7458858 -4.2350597 3.1206565
3.2913761 -1.77692 4.3696451
11.08912 -0.29444686 5.0501347
8.6492701 -7.7984147 2.0390816
19.671087 -1.681326 4.077035
8.7669334 -2.9038999 2.4700365
12.084858 3.8342171 4.195755
10.922832 3.8820784 4.1917095
18.825756 5.8068419 5.3630857
15.065044 0.49495038 4.8402085
3.0575821 -4.6380715 4.4305706
7.759562 -1.6697098 3.8024852
23.698967 6.4643555 6.0749893
8.593401 -7.5144958 3.6387916
10.034248 -7.3573213 2.8040931
19.881712 0.90313739 2.7422943
6.5240855 1.8722738 4.1564422
3.425478 -4.9488287 4.4352608
17.739155 -1.2755303 2.0938313
11.288658 -1.1819246 4.3670592
18.871937 7.300561 5.2806001
19.521206 -1.7895337 2.3813276
11.425751 2.9364653 4.4052505
8.4152279 2.2745852 4.0813684
10.593685 4.3425255 3.6731834
8.8270111 -7.8266225 2.8244429
9.5400143 -6.8819132 0.89826387
25.140688 8.593317 6.1819406
7.7205777 -3.7581735 4.6302853
18.617432 2.5772533 2.8116217
10.6402 -7.4032793 1.9043857
22.296745 8.6249981 5.7520375
3.681138 -6.6009426 3.11257
16.54414 1.132243 4.8255687
18.157667 -0.94969797 4.7110739
8.3175058 1.9823306 4.1444411
12.314257 3.9289241 4.6293564
12.193104 2.7051919 5.0406609
19.966484 -1.9841626 2.4900217
7.4668641 -1.5014182 3.7450876
17.380434 -2.4452028 2.6350129
17.896839 2.3800163 3.0511937
18.976625 3.1795499 5.6121035
14.867205 4.5926852 5.1927629
5.2155247 1.7061567 3.4761271
7.9633608 -8.0031204 3.2376626
7.1303396 3.7215552 2.9802823
4.373683 -0.53040689 1.3894532
4.7636642 1.39256 0.8150506
12.973049 4.3066435 4.244215
5.7473464 -5.3461671 3.4700613
18.85948 -1.1724055 4.7942152
10.691676 3.0680501 4.5202169
13.992229 5.3903232 4.8674297
11.599343 2.6990795 4.4023256
11.162763 3.8965468 4.2107234
5.1119542 -0.30798674 0.65265214
6.7901287 2.6296608 3.4004793
3.8824258 -0.463467 3.116034
13.346766 3.1957288 5.1442795
6.0592394 -1.027312 4.6112828
9.0987682 -4.121141 1.4779643
10.899264 1.8421159 4.5414476
8.2509851 -3.7149796 3.9238651
17.91361 2.3972354 5.0073071
8.1697712 3.2618682 4.3692913
17.334021 7.2042432 4.2554712
8.2580185 -8.8564281 1.4587756
10.278109 -7.357316 1.6200122
16.664516 4.8461342 5.4204807
21.350319 8.4003315 5.544714
4.7353587 -3.049433 3.2110941
28.736813 9.6861734 6.6273141
17.433073 1.0362699 3.091573
9.6331539 -5.2904186 1.1092576
15.331568 0.13866282 4.7818489
9.4165897 2.6909878 4.2561383
10.091503 -2.0925989 4.2595687
9.4176407 -5.7149382 0.99353111
18.562536 -1.625003 4.6715608
20.974056 4.2067466 5.4484982
7.5931544 -2.0441992 4.7719917
5.4126458 -0.69276857 1.3030573
7.917119 -7.7345634 2.2101703
5.5574188 1.644526 3.8233895
3.4829557 -6.4554057 3.1075923
20.740728 4.5474558 5.8111167
13.20176 -1.1208274 4.4774508
24.169342 6.6923594 6.1093626
19.375364 3.6840589 5.218483
5.1119547 0.57139677 0.6256277
20.411983 4.899941 5.8210192
4.9727879 2.5537009 3.064137
13.840927 5.1621709 4.3535099
9.9452057 -8.5627613 1.4400917
14.010624 5.3852282 3.5833404
3.999645 -4.8212399 4.4617367
21.981224 5.9307022 5.4475136
8.4129553 -6.2782078 1.1420729
8.6629715 -7.6777973 2.9530618
10.598494 -1.9286878 4.296555
17.762918 -1.357324 3.9930091
12.899986 1.6063056 4.4739013
6.295434 -5.7116613 3.8510778
10.816966 1.7271571 4.5372372
8.9585381 -8.3129292 3.8166008
4.0335188 3.1228476 3.7108672
15.978682 6.2648425 4.4067802
9.154871 1.8253366 4.1620479
12.005236 3.3946886 4.8113031
19.369867 -1.7971544 2.7959948
14.837958 2.4575579 5.351233
7.1295614 0.9298836 3.8685718
14.942898 4.4450378 5.0633025
11.468216 3.6561861 4.5003662
15.890528 0.74264789 5.0408754
8.9414005 -4.2828918 3.561913
5.2235684 3.0618734 2.9282904
25.635281 7.095377 6.1099062
20.967934 7.7967815 5.6643801
20.009604 -1.2388694 4.0269465
4.8858294 2.9953408 3.6632583
10.307421 1.2616905 4.2199268
8.045846 -5.00246 2.9789233
3.0352101 -6.5176024 4.1431379
19.601395 6.6052284 5.2617979
15.816978 3.2545841 5.4263792
4.1881428 -4.14048 4.508069
19.291496 -2.5636473 1.9802716
7.8846836 -8.2284479 1.6788299
9.4544439 -3.4051127 3.9508834
9.3909206 -1.6824214 3.3041811
9.4611149 -3.2483289 4.0579143
3.3868439 -2.5950904 4.4220824
18.94066 -0.12195617 4.9227085
19.224464 1.7869368 4.0316916
5.6868267 -0.24154069 1.393023
6.3243961 1.2968327 3.6609781
7.971333 -0.39482763 3.8350623
18.547087 5.6829309 4.5277672
10.45392 4.3667173 4.1470003
9.7963696 -7.6875691 2.7425375
18.932341 3.0243013 5.31178
8.418541 -7.8464751 1.3686533
4.27425 0.92636085 0.7455548
21.438675 4.4328833 5.7355914
7.8207407 -1.028783 4.7711411
18.910234 -2.2015193 4.7433839
13.47014 5.2779298 4.7664909
9.7346249 -2.2709541 4.2178512
18.412827 3.168057 3.6045146
9.1074123 -7.9875178 2.6992481
5.0936708 1.9765733 3.5264945
18.672997 6.3917308 4.4328213
4.8699961 -1.9248481 4.5346003
6.3165121 -4.911592 4.4080081
13.146893 -0.24773769 4.5816274
6.583406 1.7700931 3.7828491
8.7321062 -5.5434141 1.0801132
3.9261169 -1.3014024 3.0622916
7.8575497 -7.6599922 2.7836304
10.059416 -4.6787562 1.4623673
14.187196 6.2197771 4.696126
17.245352 7.0914245 5.0431204
17.368092 7.2085538 4.801002
12.526068 4.5114088 4.0317564
8.7944918 -7.5949469 3.8479018
15.722587 5.9285288 4.3269606
10.023038 -7.6962028 3.3105135
15.086887 4.227778 4.7628903
21.412453 7.2450886 5.4327402
7.6623583 2.087249 4.3686032
20.918287 7.3223009 5.7186193
15.392324 1.5127883 4.7817597
4.68998 2.5144141 3.9493129
8.8543491 -3.2563968 2.998672
9.0110359 -0.13034025 4.0057068
18.962685 -0.27697396 4.86343
9.794692 -2.8004646 4.1566868
21.246937 4.5883832 5.3641653
17.783735 1.0362701 3.8083301
18.980268 -2.432132 4.4815011
9.5791054 -2.8381357 4.7488337
14.593992 4.8389177 5.1147394
12.632582 4.5815201 4.857697
10.584688 -7.4437551 2.5466294
8.0925989 -7.2810402 3.4312153
8.208993 3.2409954 4.151926
22.577793 8.1069536 5.5837021
18.993351 4.3598013 5.1280208
8.0153389 -7.357316 1.7158716
9.1677656 0.34539524 4.0828629
21.931074 8.2821217 5.5602989
5.3117023 -0.44067889 0.40051049
18.499563 5.668107 5.112083
9.9163647 -4.1576729 1.8215516
9.381134 -7.876163 2.7975674
13.998233 4.6683383 5.0495424
10.786875 -1.8339099 4.3507433
8.9622173 -8.2195702 1.0663017
18.751684 6.9028234 4.9430237
7.7696395 1.5007628 4.588459
5.7067742 1.3326133 0.60155666
24.593456 8.6425095 5.7560377
24.457115 8.6979208 5.7533951
18.464119 3.5611711 4.0625019
4.1334677 -3.704771 3.0936363
9.3256493 3.4015853 4.5274296
9.7668552 -2.9830797 2.2189927
9.4087324 -0.99129128 4.4587898
9.1452122 -3.4227719 2.8510485
13.545203 4.6473541 4.2600689
8.3817263 -7.3573165 1.7425917
9.0079021 -7.623786 2.306819
13.21664 -0.13377552 4.5808511
3.8801644 -1.9121046 3.0321419
19.251965 -1.5734094 1.8668114
8.3530846 -3.7983906 2.512903
13.423969 2.1489396 5.2222633
24.046423 8.4572668 6.0429177
13.602754 1.0759573 5.2571621
8.2964249 -6.2675934 3.5258973
12.700735 2.7457817 4.4883685
16.474592 1.4678466 4.8557177
13.967609 5.7328753 3.9399207
12.897483 -0.5188852 4.5688286
5.3006768 -0.92712665 4.5208578
5.1984196 -3.5284333 4.5878367
4.2001386 2.6969812 3.5156717
4.0589776 2.8019145 3.8007908
9.4905968 -0.19401777 4.1088638
10.236114 -8.7542114 3.258805
5.1119542 1.3551333 0.70192087
25.384514 9.5290737 6.0908794
6.7092113 1.4308761 4.4623327
20.072906 -0.68502378 3.8680761
19.607153 6.3198857 5.2370853
13.510611 3.8603892 4.7677917
13.989397 4.1935711 4.6799126
15.184173 4.1200433 4.7630191
22.024055 7.2685866 5.4771314
17.532742 -2.6669943 4.0790963
8.2395067 -4.9637561 3.0885258
9.080965 -3.9016209 3.2387242
20.50458 3.6159635 5.4834118
4.4990759 2.1805072 0.93562096
17.937136 4.5454187 5.5995655
20.550261 6.225811 5.3031292
28.665291 9.510088 6.3417997
4.1255412 2.0199783 0.44459152
20.203976 6.4627705 5.7251439
19.513702 -2.6990798 4.3917289
19.301491 -2.162534 4.633698
18.107128 -2.9559565 4.3104649
9.3358955 -0.43056533 4.4771166
17.233786 5.2275367 5.1104307
22.652861 7.9856277 5.577045
7.3242221 -0.82308102 4.7221384
10.358782 2.9556623 4.2061658
19.352947 2.7412825 3.0540321
4.9456363 2.5992742 3.4951024
6.3931847 -3.3561561 4.66325
3.1058254 -3.2305665 4.4190578
21.043961 7.0114603 5.3881884
5.5371485 0.13826257 0.33558148
17.658939 1.6556128 5.0227184
18.467493 1.03627 3.9114137
8.2270517 -5.3926835 1.4208845
7.0391979 -0.90482008 3.6535413
17.686367 5.2050257 5.5192027
9.7700977 0.79448926 4.1536322
27.965675 10.404964 6.3799019
9.1341534 -2.5630615 4.1446257
7.9681444 2.7237329 4.0315042
17.884598 1.5664334 3.8219676
3.7097015 -7.3289804 3.5976591
9.5911837 -0.081859291 4.9064088
18.934042 0.81861752 3.815865
18.870544 4.1489496 4.0797257
9.6455193 -7.8603487 3.3272445
18.972771 -1.5834489 2.9984453
19.083448 2.7440896 5.379209
9.9654579 2.2077858 4.8000569
17.995253 -2.8972683 4.378715
9.1824579 -7.4589558 0.96755141
11.617031 -0.12694253 5.0901079
6.4763145 2.6318662 3.7906542
4.638783 1.7024982 3.5430059
3.9945374 1.6405557 3.4727354
11.241274 -1.0334953 4.3488202
8.9586773 -3.4042645 3.6427081
3.7550704 -1.2231231 3.3735328
10.599654 5.3088365 4.2710752
14.148425 3.0516939 4.8481731
12.040342 -0.36328149 5.1040049
14.508125 5.4045796 5.0262966
15.971081 5.3773413 5.0036659
8.9265013 -1.3327403 3.8488925
29.595419 10.908527 7.519269
17.368649 0.8313238 3.1425903
7.5416279 1.8873703 4.2856693
17.570679 5.0714073 5.5165315
18.674711 7.2072725 4.7897639
10.884705 -1.5191307 4.9616361
17.569756 -1.7892077 3.5854852
10.603943 3.5305786 4.0229115
7.4166675 1.1215259 4.0717354
12.171048 2.5667226 4.4359088
8.8792744 -1.2742032 4.158308
7.8092427 -7.307622 2.146204
7.452589 3.6187735 2.6948481
9.451993 -3.7751193 4.1375856
11.3356 -2.3440776 4.5886602
9.9610367 -7.6396871 2.5218763
9.8191586 -7.7257972 3.1107924
16.343613 0.94139683 5.0985756
5.7722931 1.1538882 1.1311889
5.7217846 3.3718486 2.9565001
16.258314 6.1017742 5.0048261
23.81427 6.2772369 6.0503058
10.314757 -5.742671 1.532259
5.1353712 -4.6033421 3.3801038
17.793594 -1.7533752 2.857687
6.1982737 3.2934735 3.9074812
7.7232323 -6.3580985 2.3525822
9.469902 -0.86316389 4.2931318
3.0425363 -5.5039544 4.3391418
10.249565 -7.7067461 3.066761
7.3042336 0.36357379 3.7550364
12.892699 4.425704 4.9175978
12.863739 4.9989614 4.0923762
9.1824417 -4.1262422 4.4134626
11.908534 1.0144162 4.3684549
18.114079 3.721504 5.6337047
6.3854165 1.7458609 4.0204663
17.840588 2.2651987 3.2987385
8.0977068 -3.0964952 4.7372384
19.726807 1.0071926 4.0535302
5.601645 0.26077086 0.99575603
10.29545 -8.7140207 2.7167025
15.066103 5.8279872 4.1906524
16.037132 2.611939 5.4600272
5.2609029 -6.3387327 3.7682891
18.314541 7.0172658 4.5919738
5.6699715 2.1555932 4.0109515
19.118074 4.545908 5.7125616
11.358659 -0.94657433 4.3599606
15.235287 2.7790818 5.3817782
9.4005919 -6.9197478 3.9202068
19.888714 -2.2834263 2.7715533
17.254112 -2.1378832 2.8452716
8.0367861 -2.9617949 4.7475781
14.140745 4.7433844 5.0600591
19.753263 5.1583786 5.760283
9.1403389 -1.7281299 2.2395716
7.3959093 -1.8261657 3.7313709
6.7720432 2.5708287 4.2558661
4.2844181 -3.4830062 3.1230538
18.011202 -2.5617106 2.0130515
3.8678408 -6.3313017 3.2764821
13.790898 5.1726675 4.7645702
8.1545801 -4.0643778 4.49228
15.83895 4.1330667 5.3771977
15.022329 4.8559618 4.8097682
20.161083 -2.1644406 3.4594994
10.297873 0.67376471 4.1922388
27.312666 8.7635412 6.3913994
9.7822084 -6.7614632 3.7739356
12.648509 4.9324293 4.0509448
8.2301426 -2.1547234 4.8110652
16.106064 4.8083262 4.8769836
17.485479 -2.6579707 2.5396204
4.3369651 -4.3545971 4.5089121
14.430144 1.9119599 4.6401048
10.495554 2.1284075 4.1941228
8.582428 -4.7857294 1.2628245
18.196995 3.0259168 3.2555113
7.8635521 2.986062 3.4707265
7.8609414 -3.5966475 3.9446604
27.628656 10.130219 6.365345
7.5203152 2.669781 3.7260773
18.899113 2.5772531 2.64569
21.511246 4.7992377 5.3977723
18.000324 -2.7469702 4.1907473
14.905737 5.8441215 4.2840023
18.045547 1.9196587 5.1453066
25.47607 7.1043859 5.9007301
18.738688 6.6143742 4.6762104
20.117275 -1.3207211 3.7944536
9.4356365 -3.1690841 4.3550682
9.9312658 -7.9153461 1.0559608
13.64371 4.6569133 4.6316638
5.5261512 1.6406996 3.6633275
9.1548491 -5.129231 1.0559492
18.617941 5.3008184 5.0996456
20.394423 6.5798287 5.3120914
16.320856 6.3683076 5.0394602
9.7435007 -1.1839087 4.934783
8.1379471 -7.7996464 2.1338086
4.625104 1.7844815 3.6706083
18.593847 5.8143768 4.3541479
9.436511 -3.0026765 3.7924812
8.8924665 2.6925335 4.566371
4.2698426 -2.4677629 3.1156759
23.018385 7.5138597 5.5679455
10.182281 -1.2359158 4.2088022
13.335056 0.18132485 4.5725245
20.072784 -1.8992898 2.6782227
7.6555095 3.3516154 4.2712693
4.1417327 2.9980493 3.0007749
4.6392303 -5.7360148 3.3134346
18.081694 6.0226974 5.4950552
10.342806 -7.7302713 2.457067
17.549355 1.331443 3.1704977
10.749972 3.2477174 4.5301061
9.8769245 -4.9637561 2.0395081
8.0793095 2.8540957 3.9601679
7.9164996 -4.9907608 2.1213644
8.6106462 -5.6526914 3.6423008
17.492373 -2.0180137 2.6284208
15.947609 3.4896805 4.7972627
7.5791202 -1.48168 4.7606206
9.3016024 -7.6729336 1.6297786
8.7658253 -0.75965279 3.9983139
4.817687 -3.8034608 3.2474105
14.149061 0.029312357 5.1520815
17.409155 6.6413064 5.2075677
6.1235905 1.908345 3.8027296
5.5052738 1.8245313 3.5764284
4.4465971 -1.6355132 4.4834127
9.206706 -4.9637561 3.6062791
18.84153 4.7925611 4.2175274
4.8215876 0.96714443 0.79304463
12.22512 -0.3893438 4.4484062
17.368273 7.1839371 3.832077
8.9441833 -3.8494725 3.7342117
9.6615305 3.1975741 4.1261053
5.3043098 -0.84661496 0.9896915
18.768887 -2.312557 1.8078642
29.50893 10.972687 7.4392004
18.690855 2.6948969 5.494947
4.6233563 1.5302014 4.0265856
19.773546 1.4556086 3.158808
8.4204483 -4.9637556 2.270709
9.3019476 0.46155632 4.8522053
17.713669 7.3944464 5.0179634
8.4553814 -8.2452831 3.6466591
19.766068 -1.6217294 2.8803492
28.563932 10.218784 6.5502558
4.8915553 2.5786276 3.9660349
17.795147 -1.7078453 2.5635853
12.204901 3.482718 4.8337774
8.438405 0.8410328 4.7337379
18.177162 -2.5985641 4.6037989
19.792107 1.1357989 2.6435943
5.5992336 2.1806593 0.98043072
9.3664932 -1.3606632 3.3160768
8.9941025 0.80343384 4.0735407
11.434505 3.8494134 4.4920278
11.482388 1.0414252 4.3202124
13.985604 4.1465883 4.4202757
19.613377 -1.9803548 2.2749214
15.170296 5.3474178 5.1308393
9.2779522 0.78541279 4.1078453
9.1838741 -1.0392399 2.9770486
7.766242 -6.2942386 2.0565705
18.52924 7.1982493 5.2498093
9.1850567 0.42233366 4.465415
15.456774 2.1778691 4.7523165
17.881996 2.4445734 5.5039825
9.7999105 -7.8499475 2.7712934
18.436142 2.5629234 2.5352745
16.975531 5.674921 4.7915664
4.4274807 1.4825443 0.12942621
19.603745 -2.7377687 2.5371938
9.868063 -6.8422041 3.7364988
3.466531 -1.5722013 4.3701487
4.7939978 3.1234412 3.0314395
10.970594 -0.36328387 5.0402536
19.696249 5.0403681 5.2030139
5.3032598 -0.62731206 1.2292055
27.637535 9.1978779 6.052197
8.7345695 0.5448212 4.7856388
18.669945 -2.5349841 1.8333884
5.0808125 -6.3017077 3.8516755
4.2671943 -0.23057045 4.3497529
12.608078 -0.73328316 4.5427461
5.7799578 1.4604172 0.39324579
11.335212 3.5456221 4.8115487
10.459037 -8.3760929 2.4252973
12.495128 -1.7136765 4.5544186
17.536987 -1.357324 3.0541921
7.7157831 -4.3653984 4.0397139
19.702084 0.93515408 2.4632468
23.235012 6.9295559 6.0532637
3.3595228 -6.7104864 4.1261907
14.717434 5.4161463 5.0555058
19.740921 -2.5993817 2.3266037
4.3252058 1.0625694 0.36773428
17.566086 5.5446239 5.0349007
18.918545 3.4232297 5.4152403
9.5367603 -2.1112232 3.939038
9.3046741 -7.7239408 3.2946026
9.8742752 3.4159384 3.7528076
18.969879 5.1208339 5.6852145
7.3462105 0.43096405 4.6428752
24.016441 6.6073008 6.0972247
7.9862227 -8.4685621 2.6079922
11.139685 0.070366405 5.049365
28.004309 9.0126066 6.4343014
4.3244362 -6.6716561 3.9015841
8.928092 -5.1907115 3.515229
20.025003 -1.9557176 2.9866474
15.126502 1.5364146 4.7397356
17.408821 7.3646498 4.1847482
17.06007 1.6789883 5.3544106
18.626635 -2.7836521 1.9228803
12.196859 1.5906579 4.3949108
8.5983543 -3.0181861 2.6724336
9.4190807 3.1674814 4.0534854
7.1787863 1.6385441 4.0463367
6.4831738 -4.8728275 4.4029636
18.96524 -1.6100854 2.8486257
13.002157 -0.92708296 4.4718046
18.287464 1.9865614 4.0793695
7.9216261 -7.4660096 2.9634295
6.3906674 2.5087354 3.8747566
10.010515 -5.2706161 1.316541
4.8468766 -0.59478998 0.87641656
19.629463 4.1992917 5.2165666
19.872818 -1.7889225 4.2239718
7.7652864 -7.7863903 2.890573
8.8389711 -8.5082846 3.7577071
16.271555 3.7785091 4.8325667
20.652439 4.5742784 5.3432422
4.1277819 0.3485257 3.2176847
4.8373666 -6.4342756 3.7032347
19.106686 2.0998135 4.0426822
20.975323 5.9041843 5.3381834
18.792007 3.8914156 3.0702341
9.9880009 -3.749248 2.6624265
19.222746 -0.77151632 4.6989903
3.7596831 -7.3163738 3.1927888
15.843203 3.6143658 5.4157352
8.2894163 -7.3573198 2.0330107
9.9968491 -7.1968961 1.0842738
3.9592538 -3.9251413 4.5030713
3.2855628 -0.50029576 2.9819031
23.841822 8.4503002 5.6931639
28.100986 11.101402 6.2174196
4.3934197 2.3503773 3.9390182
19.116993 2.8729339 5.4520168
18.805393 3.0579326 2.6436319
7.9212332 3.5921798 4.2116866
25.201382 6.788599 6.051631
8.3410845 2.34497 3.8770947
18.500294 -0.68718272 4.786314
18.233276 2.4384432 5.0192509
14.92337 3.6950541 5.29883
15.401495 4.7870779 5.24509
6.0929313 2.5200508 3.8026209
9.7538433 3.6155021 3.6342204
14.168629 3.7727458 4.4619398
17.645042 -1.405597 2.1695096
10.08414 -4.2649865 2.1102865
18.927937 2.1827936 5.1601071
21.888908 8.5454521 5.5846133
11.029924 -1.7291322 4.9263287
6.0903034 -3.8455422 3.5389609
10.437973 3.0804179 4.3560686
7.4421854 -2.6729841 4.7477345
5.1561203 1.2381874 1.8223002
18.026114 -2.8969657 4.2267857
8.9375286 -2.2600832 2.4874959
18.966646 3.8806577 5.6948481
17.208687 1.8915731 5.0526557
17.388172 0.78567213 2.9754484
9.9836407 -7.3573289 2.3425612
17.443573 6.9517217 4.6973915
7.2981782 1.5075518 4.5259371
16.738411 4.847095 4.9267573
24.214731 8.5316753 6.0583773
17.387621 -0.6996668 2.5226712
18.626448 -1.762378 3.4851184
7.9663157 -4.882761 2.0083423
3.9975679 -3.670877 4.501328
18.917728 3.7269499 4.1664891
9.2459202 -1.6795552 4.8873076
19.200415 -2.4734573 1.9184191
7.27808 1.1170799 4.5668979
17.941135 -1.3086329 4.4773378
15.131932 2.6601 4.7141986
8.2610722 -7.7493124 1.1764123
10.178135 -0.18583825 4.964757
16.828537 6.4516749 4.6058946
18.338158 4.2509394 5.0984182
17.245609 -0.21041144 3.4958706
6.7156873 -5.1466265 3.9195814
12.76873 0.020459779 4.4992847
10.287481 -2.3733604 4.8173056
11.742716 1.1389022 4.3485036
3.9949872 2.7037177 3.2081034
8.1733112 -2.526242 3.9198763
13.860218 4.8616624 4.5698519
8.3594904 -5.5563183 3.4730651
9.3256111 -4.7762413 4.2239981
8.0952148 -4.1634016 3.8528461
5.6308327 -6.1106257 3.7984233
18.870844 2.2502971 3.9164519
4.7848034 0.81849766 4.2812109
8.2948971 3.0915766 3.5166407
18.405916 -1.7269194 2.0218561
8.7267647 2.2138121 4.5086136
7.2680821 -4.2314544 4.5359445
8.5382643 -2.9822772 4.7528787
21.236721 7.9741507 5.4891348
8.5993252 2.6793475 3.7773581
16.565849 4.8401179 4.9134111
10.427059 2.3720775 4.8443608
17.759434 5.2921038 5.0688457
10.236915 2.6542149 4.3020949
19.745935 -2.105562 4.336473
18.284519 3.21 3.1939912
5.8179531 -5.8120384 3.4606798
6.2343593 -1.4479626 3.4980226
7.9915023 3.4839749 3.4606309
10.50933 3.4206429 3.9290657
25.964386 7.2499714 6.0748491
12.587305 3.4834974 4.5336199
17.602024 4.3202276 5.1990385
17.562937 -0.26364031 4.2166624
26.244209 9.5085382 6.237134
16.654219 5.9963183 4.8484159
17.063856 6.5632162 4.4338093
8.2666578 -1.2586129 3.9015572
13.887614 5.9231114 3.7031548
10.117649 -5.3553047 1.3893306
18.442013 -2.0955567 1.9509734
17.271114 4.6096382 5.1228943
10.178638 -1.3274802 4.9595275
9.4551811 -5.9961748 3.7879181
9.853426 -0.53113043 4.9404631
6.5914569 2.4493334 3.9663544
3.7267399 -7.1923971 3.6751971
8.3104458 -0.22937196 3.9034691
9.2456779 -5.0746264 3.6838906
18.430729 -2.056793 3.1320372
14.550209 5.0172172 5.0826168
14.772532 4.9282789 4.4874883
3.3817787 1.8083367 3.1709168
5.8857269 -1.3449559 3.4267337
22.539194 8.9136667 5.6715012
3.6375196 -6.3727641 4.2153811
22.737343 6.2535758 5.534379
9.1003284 0.16796166 3.7051959
8.4469128 -3.44556 2.1172314
11.458743 -0.87627137 4.3697433
20.437943 7.8536658 5.4289675
18.110846 6.5634675 5.4048047
13.805081 2.5826569 5.2432113
10.776773 0.57461315 4.5706024
4.6021562 1.9408588 0.69135255
8.8131161 -6.6093454 0.93371862
6.0622501 0.23439214 4.5154123
6.5172167 3.0556676 3.4762502
17.900322 5.897346 5.4601531
6.2057395 -0.28379816 4.5719209
12.469027 -1.4242251 4.6536312
21.654938 5.3344851 5.9108796
24.609079 6.8164616 6.1275234
19.876068 -2.5462847 2.4667809
14.867938 5.1447039 5.1127253
10.842002 2.5384498 4.521935
18.486221 5.0357862 5.6324434
6.8392968 1.8014116 4.007256
8.6348381 -7.7942877 1.2568214
9.5010853 -1.3302923 4.0847902
3.5370188 2.6677434 3.1414316
9.5268583 -7.4560862 3.8669612
9.7348585 -1.1746149 4.1456509
10.104362 -7.7492456 1.1574204
19.116173 -1.357324 4.1571712
9.1221294 -0.50502455 3.1427901
23.55517 7.0653896 5.6156569
17.380009 5.794467 4.4720769
10.587543 -7.3318815 2.2292185
8.4499578 1.8103538 4.0454721
20.694054 6.4457083 5.795712
5.4053612 2.0914042 4.1425314
5.7866044 -5.1515083 4.3873725
16.478079 5.6069651 5.2890964
10.722766 -2.3486211 4.78262
6.450841 -0.29080421 3.5730379
4.8829889 0.60119015 2.8285704
17.446861 5.4974122 5.0229578
17.55064 -1.357324 3.59551
24.926113 6.5772247 5.9996481
21.291935 6.6467419 5.8549089
9.2523432 -7.8209963 0.85826015
7.016747 3.1584074 3.5087855
7.1210485 3.1131454 3.2697394
23.945486 6.9040713 5.6656532
14.045368 4.4540868 4.5834899
13.904874 5.3159375 4.0771022
26.606195 9.3504133 5.9517708
8.434454 -8.8646364 3.4534369
24.655966 6.5669727 5.8199954
19.553068 6.6258912 5.6085262
5.4805965 1.6619164 3.9243667
15.62841 5.7807651 5.1419473
8.002614 -4.5943656 4.0892992
8.8528976 -2.4193699 3.8525293
4.3828397 2.7929504 2.8517303
4.0435448 -2.745682 4.4847689
8.3708344 3.3296969 3.6753435
8.862443 -8.6457481 3.4706769
13.975868 5.8858733 3.8456163
4.5165749 -4.3996196 3.2160759
28.856735 11.447827 6.6508493
18.427881 1.4684899 4.351193
8.8831692 -4.9637556 1.5224937
24.597145 6.3110261 5.6687589
4.1695395 -1.3527689 3.1152229
11.300438 -0.61154377 5.0549064
20.804861 6.561492 5.8001795
16.728333 6.5911245 4.4619894
11.924062 -0.35738614 4.4006605
13.640138 0.27242789 5.2105656
18.731142 -2.6946089 1.8766423
26.736034 7.9240742 6.2626848
13.830509 5.4686337 3.7924633
7.5053382 0.49297363 4.0784569
11.411308 3.467541 4.585742
14.401237 2.2837036 5.3132834
13.936201 4.259788 4.1963382
14.159792 5.6023593 3.4858501
10.507812 2.8886986 4.4572639
24.46307 6.6168547 5.6952543
9.0087938 2.8612671 3.7825918
19.051571 -1.6299326 2.4355836
10.293997 -2.0219922 4.2866225
24.711868 7.4978027 5.7394395
18.91328 2.4598975 4.4667773
5.2501769 -4.8691535 3.4345798
8.5312281 -4.6302824 1.4646181
9.2152967 1.2852589 4.006886
19.757463 -0.65720874 4.3367615
10.266338 -8.3553104 3.3622282
17.998594 4.3232346 5.6110368
18.81477 -2.3382008 4.7302003
8.9033871 -7.7908769 3.1705899
20.142498 -0.3079052 3.3753555
19.979076 0.88216239 3.0299454
4.6565523 -3.9794557 4.540709
25.576759 9.1694574 6.1806345
10.810841 1.0926341 4.9883318
14.21574 6.0899634 4.7953568
19.532675 -0.77690923 4.5414853
7.8309278 -4.7296419 3.9752028
19.765825 -0.72156507 2.2336226
7.5372238 3.4673584 2.8831429
18.817818 3.5474029 5.6629148
11.525201 3.5151691 4.5961275
22.804047 7.39604 5.544632
23.579475 5.5948882 5.5651927
10.484999 4.7019424 4.2090244
8.1760759 -7.9412584 3.2855387
14.523134 2.4328489 4.648015
8.5098858 1.3990492 4.6911564
8.0532598 -6.9207072 3.3780243
10.426992 0.48428953 4.9734364
18.520849 6.640677 5.1152711
3.3899231 -3.5176437 2.9368367
18.835901 -1.7317293 2.7132757
19.800798 1.3981578 3.3327081
22.897465 8.9615688 5.6866236
10.22891 -4.9637561 2.3441582
4.2610388 -6.8507552 3.198113
20.110546 4.5429335 5.7901778
23.676876 5.9278064 5.7231321
8.2423687 -7.8517733 2.631355
18.536819 5.3942575 5.6102228
3.2640686 -7.1424055 3.9682286
8.8883209 -7.2248597 3.8727663
9.8066702 0.95512831 4.1640358
3.8503029 -4.2961116 4.4831691
6.8741837 -2.2669055 3.6294479
7.4951048 -4.3045611 3.9520712
21.28931 5.3271003 5.3847017
11.475121 2.1380157 4.3578167
11.089099 -2.6251969 4.3246021
18.955183 6.3028116 5.1757669
5.3326297 -6.1873713 3.3819814
10.563217 4.6625137 3.1507568
14.355612 2.4461961 4.6289997
4.6174703 -4.3314595 4.5258904
4.2051702 2.0053339 1.225319
8.0211439 2.564739 4.1719179
17.989849 2.8145788 3.3368351
19.111149 0.021414794 4.6467395
9.4239235 2.8493857 3.8670616
18.712711 3.1492884 5.164299
10.996844 3.482214 4.7695551
11.309044 2.7033882 4.9274635
19.820112 0.24197392 4.1131525
10.485584 2.5940313 4.0388536
17.635067 -1.5553887 2.3484859
11.273586 4.5261688 4.5903559
4.9091401 2.2999043 3.7357757
18.14167 1.03627 3.9921117
24.950068 9.9233265 5.9390063
7.2665067 2.4959455 4.08007
3.5776913 0.95156789 3.1788721
4.8366899 2.7931454 2.9420021
7.088378 -3.4026186 4.6789021
12.874367 -1.4642015 4.5482845
12.020542 0.83136594 5.1181254
9.4482288 -1.6458454 3.6506581
18.932838 2.4251058 4.0588689
7.4425521 2.7994115 4.1107321
8.1152868 -7.3573155 1.4991415
18.158155 2.5159965 2.6845975
5.1986008 3.1996517 3.0522122
10.066515 3.6049781 4.3855839
5.86906 3.1974118 4.0103078
4.5465374 -0.0017780385 0.25753412
19.075373 -2.7853234 2.1342201
14.954449 3.1231513 4.6927691
17.297802 0.4218455 3.2694762
17.560547 -1.3280288 2.2565827
19.743824 5.0015945 5.7626896
8.3788357 -4.6636186 1.5779366
5.1609364 1.7929549 3.6623425
13.888562 4.1287022 4.4915218
11.719054 4.0753651 3.9904795
14.960804 2.419343 4.6967235
10.504122 0.4115738 4.5225964
16.861588 6.6235352 4.4960012
4.0818892 3.1623602 2.7040954
9.0942707 0.69203103 4.2374101
13.631622 -0.89437878 4.7716513
19.368193 2.8692956 3.3167114
9.4622278 -5.2145681 3.7467499
9.1972008 -7.7892513 1.4498529
10.890237 -1.1827003 4.9954872
5.600533 0.20726538 0.43175581
18.478914 1.1443198 5.04848
10.220037 -4.9143124 3.1499352
4.9158063 3.1392698 3.7093379
17.811914 6.3353825 4.7439008
14.864664 5.8079066 4.1509762
8.2495871 -7.6856079 2.6724534
19.259829 -2.6318874 2.2389481
8.2858191 -3.2385635 4.7121201
10.086307 -7.9323506 1.3240361
7.7809787 -6.0450354 2.6575286
13.954278 4.4093375 4.4790845
12.23575 4.0607872 4.8719311
13.691046 4.3189635 4.4432521
3.3593693 2.0305138 3.2769485
19.253 6.6165061 5.2128916
9.9939899 -0.96195024 4.95789
12.55422 -1.3016515 4.4150391
5.882843 -2.8063707 4.6432567
14.356197 3.9588776 4.8638153
7.9862881 -8.3986788 2.021348
8.9098215 -1.7272538 3.7662554
29.478142 11.110312 7.1536055
9.2852688 -1.8352499 2.5267155
8.9726095 -3.4112496 4.2122393
16.49851 2.2113996 5.4719729
7.5060911 2.9407632 3.4148133
4.8446078 1.0599892 0.87870449
3.2774377 -2.0510206 2.8874853
17.03701 3.2519362 4.9188695
7.3314819 2.3954268 3.922051
12.423853 1.9476247 4.4279261
18.780926 3.1679397 5.6138639
26.608418 7.9930935 5.9886684
13.602369 3.2586322 4.5882702
12.931158 4.7584352 4.8785963
22.863476 8.2141399 5.6111689
8.4326849 -4.9637556 1.4227473
11.072069 -0.70140809 4.302568
4.1180816 -0.43466038 0.39440072
4.7879663 1.6059765 0.83601171
12.772499 1.6074967 4.4595337
16.168068 5.7686195 4.9670601
13.037707 5.1007509 4.0808597
6.4454837 3.2173209 3.1115685
8.9337339 -7.371459 0.87539542
17.57198 4.7357807 5.5430574
8.8979177 -7.3573456 2.0348334
13.597729 -0.61854875 4.7346163
17.55212 -1.9908444 2.5073414
8.8762922 -3.0383201 4.7409959
24.242767 9.609376 5.8990293
3.9988635 -1.5551649 4.4280829
24.62867 6.4288731 5.8502545
8.4210596 -0.75405896 3.9291637
10.153871 -8.6868038 1.6770718
10.694628 -7.7386112 2.0991426
10.23284 -8.3044014 1.5935867
6.1884494 2.2822704 4.0136471
12.201803 3.9825149 4.5513363
5.3238354 1.0784576 1.0970618
18.51355 2.9645751 2.6391163
19.826279 -2.7661209 2.5204957
19.490196 -1.7057781 2.5010467
18.109255 -1.3080906 4.5672164
7.1560163 -2.7752042 4.7275391
19.513363 -1.3765509 2.0047624
10.676357 4.1529889 4.4870977
18.524254 2.6643622 5.1967974
12.472986 2.3048468 5.1036158
8.6431398 0.30760545 4.7916136
22.122503 4.9193678 5.4240294
15.257285 1.8192263 4.74335
16.822876 3.2706842 4.8958979
7.4132891 3.2427654 3.38902
3.8905261 -6.039485 4.280889
6.6155348 2.5553932 4.2339115
27.376692 8.4745932 6.067194
17.169893 6.5697365 4.3154259
29.333164 10.423876 7.0172005
18.236713 0.26225236 1.955637
4.4265337 -6.959785 3.5639851
18.926264 -1.7041045 2.2893522
23.573151 6.609808 6.0807066
19.491369 -0.32246912 2.0588083
19.224684 2.8223827 5.3842969
16.899303 2.2282944 4.9551182
17.213827 5.6390791 4.7742529
6.1907306 2.7477093 3.6343608
7.150651 -5.0984535 3.730438
8.6101742 -4.384902 1.5067815
4.5463266 -2.6230414 3.1733432
15.954747 4.236515 5.3837333
6.3100433 -1.7179947 3.5165718
12.514153 3.8982248 4.5618782
23.032171 6.3654552 5.5688605
18.517303 0.41219869 1.9128709
18.595943 -0.2229154 4.7362361
29.129517 10.170694 6.8038278
9.3520947 -8.1499987 1.0456939
16.427782 6.5121293 4.3914466
22.992207 8.2445564 5.6218863
4.3664284 -3.8515313 3.1494215
27.250452 10.200459 6.0644383
4.6518779 2.764977 3.5884295
8.2107296 2.3076582 3.8657639
18.41259 -1.732285 4.0804057
10.070588 -0.64977032 4.9624939
9.6133156 -7.8512936 3.1894481
18.088657 3.0174799 3.5691698
13.970573 6.1744928 4.7953587
17.210739 -0.55900562 3.5113358
18.403427 -1.6319982 2.6535728
10.71252 4.4586563 3.6459005
19.50695 -1.7588496 3.6720908
8.9511576 -4.2629657 3.4177165
4.4018126 -2.9658999 3.1457191
18.952988 2.1440485 4.9107075
10.173349 -8.6388311 3.3877926
16.830004 6.3721523 5.0659399
6.0708966 3.0407367 4.0769801
17.960138 -1.2271535 4.6217937
18.867802 -1.4266129 1.8928388
7.7192283 -7.0267577 2.7428949
17.192137 5.4908204 4.9638486
18.467888 4.1201615 5.6595736
4.7701492 -3.2987695 3.2180657
7.9563055 -8.4577036 2.3440008
5.4993825 -5.2117982 3.54514
6.9785175 -3.4774861 4.66854
5.8599348 -1.8656778 3.4279451
18.520658 5.1077332 4.3628368
9.0269957 -7.6606655 0.86351579
28.851349 11.317064 6.6815724
10.686284 -8.1044312 2.2600286
9.8945818 -3.2216368 2.3311276
5.3010626 1.0444076 0.78233427
13.076322 -1.1903653 4.7771893
18.909901 4.2798996 4.3677359
10.206724 3.7386799 3.952282
8.1000881 -7.6614618 2.7400374
23.560883 8.3736086 5.9824595
22.621271 5.730865 5.5528622
22.365778 7.171567 5.4978342
8.3577404 -7.3573256 2.4944835
20.382141 6.9027057 5.337286
7.4236727 0.29057002 4.6615572
7.0044894 -4.5747185 3.8603773
9.3154869 1.7804917 4.1716666
6.6401734 3.4512377 3.1205161
12.107138 4.5405583 4.7859149
17.379206 -1.357324 3.9032958
13.612392 -0.69130164 4.5181737
9.6285982 -4.9637561 3.5537603
16.100473 3.5134416 4.8142419
9.6633615 -3.4227719 2.3279777
5.7867665 -2.7219462 3.4167871
16.713085 1.5878381 5.0004969
20.052658 0.11149333 2.9166565
9.1104565 -0.1694957 3.4276476
10.069229 -7.7199593 3.6273623
10.011595 -7.357316 3.1008255
15.939804 4.8519678 5.0144649
14.97581 1.1027856 5.3258548
6.9012899 -1.3085852 4.6977782
3.8117411 -0.74029577 3.2476702
22.141151 5.9281216 5.9660301
17.480507 -0.76900077 2.3717105
9.4820204 -6.2255383 3.9299664
6.737493 -0.012204826 3.6371264
9.4417706 -3.4227719 1.6462995
3.8631546 2.7850268 3.7729592
14.22924 5.8525748 3.6870632
18.813683 3.9613864 5.6874123
20.409492 6.4278622 5.3033409
10.685299 -2.4233382 4.6935306
9.2061377 -7.9769125 3.8805633
10.579292 3.8539643 3.7646129
10.459049 -6.9047832 3.2270551
17.580719 1.8933195 5.3107738
10.547121 -7.8468351 1.6955515
7.7475219 2.6049731 3.6238322
24.11441 7.3587127 5.675457
18.341995 2.5772533 3.5738533
3.7202854 -3.1387157 3.0123374
5.8532333 -5.0855784 3.622345
22.713585 8.6137695 5.8146806
19.249622 5.441679 5.1579628
3.863205 3.062963 2.855619
9.517436 -3.1213439 4.6719189
7.8481774 -8.5809155 1.895988
11.717368 -1.3830398 4.9710259
7.6938291 -7.7496819 2.1082547
5.4209499 -0.73719656 3.3675437
19.720509 1.6146705 3.4036813
18.667593 2.5799088 5.4346251
6.5693817 -5.0370345 3.8259244
7.7669716 -7.1669474 1.8508449
6.3681359 -0.084411137 4.5746055
6.0587215 -5.8835287 3.6650214
4.1591973 -0.60395819 0.21762592
9.8076925 -4.7777085 3.4803736
5.1446924 -1.9095974 4.5586486
7.89182 -4.1801205 4.4921403
11.229271 -1.2113253 5.0039244
5.6190157 -0.078040667 0.18080176
12.790582 4.104394 4.9497442
7.5321093 0.62351733 4.0765457
9.3024998 -1.0405477 4.8979816
9.714653 -3.5366468 2.993804
8.7710886 -7.714026 1.2099406
10.594074 -5.7459407 2.4784222
28.954868 11.051964 6.6194782
19.400906 -1.3573241 3.4012518
11.01829 2.8430424 4.848206
11.135044 3.7900224 4.4681449
18.388342 -1.3573239 2.100493
16.453215 3.0731599 4.8563714
8.0987101 -5.7576404 1.4995441
10.24136 -0.13874836 4.1920996
18.952543 -1.8381782 3.2148042
8.4135284 -4.9637561 3.0115321
8.8565245 -7.9538789 1.0402685
6.9433017 2.1221137 3.8334465
17.993603 -1.357324 4.1623654
26.38007 7.409761 5.8585157
26.355118 7.6151109 6.2035046
10.481164 -6.7537603 3.1684041
8.9971209 3.0029166 3.7135611
18.047348 4.1782031 5.6194134
9.3563099 -0.18891364 3.8517108
5.2767229 1.7501832 0.59667468
11.010727 1.5223181 4.9835196
13.001944 0.66641486 5.2052574
18.746761 3.5374601 3.6083744
10.091401 -3.2768674 4.2475553
5.868649 1.6826135 4.2028632
9.364665 0.025499433 4.0336657
23.304592 5.9046917 5.5786686
13.048939 4.7731032 4.067347
20.965664 7.3835278 5.417696
5.8194194 2.2872469 4.1637297
7.2949009 0.14221445 3.7421508
18.014896 4.8003616 5.0253158
5.7545981 1.6855798 0.4941293
8.5311785 -3.3310311 4.695415
4.2661619 0.75169277 3.2758257
26.732681 9.5280342 5.9718561
22.329855 6.9172659 5.4814835
20.083437 5.9910879 5.2535133
7.7487607 -7.497602 2.8552814
5.4162483 -0.96139288 0.92848629
18.8132 2.5772219 3.450604
13.351986 4.0309129 5.0693154
7.6281195 1.1085806 3.8590109
8.855711 -3.413372 3.0874646
5.1948032 0.052731149 3.4974117
20.14304 -1.4483643 3.7135835
11.482423 4.0113502 3.9512539
5.9288955 -2.4626026 4.6403589
3.4334145 2.2845972 3.4373581
17.396719 0.36961979 2.7480927
26.424574 7.7976236 6.2573423
21.453335 6.7430825 5.8674045
3.4556103 -5.331234 4.3955045
7.8847303 -5.7112536 1.8756413
19.939026 -1.7444105 3.8924952
9.6567402 -1.5930946 4.9171262
3.5226259 2.6716571 3.7436483
3.1913681 -5.2381663 2.9273105
7.9979491 -8.5206938 2.2006454
13.732743 5.5290489 3.9497113
3.5860384 -3.3692176 2.986196
15.51173 4.9326448 5.2037072
20.021164 -0.51384765 3.9271421
4.1458082 -2.384264 3.0896111
9.71451 1.817332 4.2037034
3.4322414 -2.4229488 2.9426746
8.6927195 -4.3203754 1.5817645
17.559326 6.0066957 4.7272148
16.747635 6.0995798 5.2648697
4.0755997 1.1775322 2.8648143
22.009506 5.5266623 5.938992
4.852869 2.9561005 3.1904163
27.045019 10.150101 6.2727733
18.929682 0.54657149 4.8814507
8.3347492 -0.96351027 3.9141588
10.377272 3.3120675 4.2617435
10.114634 -4.9637561 1.7735562
4.5984173 -0.52428752 0.28703767
18.921741 3.2770841 4.5620246
21.994959 5.3713961 5.4855013
8.4519215 -6.9915257 1.0542992
5.177742 1.5588353 1.9189557
9.4149675 2.9183817 4.2785187
17.269224 2.7858329 5.5473018
8.9739523 -1.179633 3.6464491
5.1948032 0.80297261 2.3788664
14.46032 4.7335629 4.7627721
8.1741562 -0.549842 3.8774266
15.974922 3.2490573 5.4417849
21.813725 5.6443386 5.9357839
6.8344674 2.5332465 3.8571956
13.643545 4.0991435 4.9874344
5.4416151 -4.1342788 3.4111693
6.0306988 -0.80809563 3.4709115
19.442867 7.2649603 5.513617
18.628433 0.94074821 5.1131272
18.049248 2.957293 3.0702555
9.5770626 1.6215433 4.8031268
15.233115 5.3543987 4.434236
18.939362 2.878505 4.859056
11.320097 -1.6138973 4.3492956
4.3343277 -0.95071936 0.99975264
21.672962 7.6918592 5.4896879
23.490461 8.0603008 5.6368012
18.157398 4.2915649 5.6272368
11.233017 1.924479 4.3277297
11.140823 3.6750917 4.3599052
7.8431234 -5.3371434 2.3863273
18.914095 2.0732751 5.2552586
15.751378 1.9992607 4.8012366
23.393047 8.2078276 5.6430845
19.105087 2.2363734 4.017406
4.3757606 -6.6187558 3.2079625
16.296717 4.6990085 5.3866158
23.237677 7.2756891 6.0447025
6.19525 -2.8046157 3.4975107
29.296797 10.897233 6.9563184
5.0157776 1.0451868 0.65114057
9.7570591 -8.3114958 1.2059066
27.993717 9.704567 6.4451799
14.465655 5.0568581 4.3444996
18.339848 5.5131302 5.0900273
19.53228 4.3729258 5.7471228
17.983934 6.7656736 5.1746817
9.4417372 -4.8649931 3.0571961
7.6904135 -3.0904434 3.852181
7.6882024 -4.0932598 3.8203607
5.7368193 2.4071393 3.8212447
7.6623907 2.5464292 4.1115012
3.7101207 0.039317369 3.1283987
23.936237 7.1248298 6.1151323
8.360384 -7.8041353 3.3198297
19.645473 3.2977414 5.5771036
13.880296 0.52546763 4.6286755
11.492445 4.2916145 4.7279644
9.437849 -1.2613794 4.4511719
29.187386 10.952646 6.8412356
27.291752 9.7652721 6.3577585
10.935941 0.36166203 4.2657471
9.3928776 -1.1252985 4.485117
6.689507 -1.1178133 4.6741214
20.44342 6.0222278 5.7989888
29.007282 10.588323 6.9669919
10.824997 4.069572 4.5409636
9.7794123 -6.3832407 3.7308671
20.268854 6.3556614 5.2882695
14.137111 6.1855278 3.6870623
22.125969 7.6341114 5.8633223
12.811815 -0.11669774 5.1501679
4.6209941 -0.37529945 0.50930786
3.1214454 -5.6920819 2.9536119
18.95013 2.8859324 4.9899688
6.8458366 0.47060779 4.584959
3.5930235 -4.801971 3.033865
10.83805 1.647976 4.2935309
7.6198792 2.8145862 3.4094954
9.6465282 3.1329813 4.3136625
16.637245 6.4844761 5.1959834
10.287344 -3.1487136 4.2586188
3.029089 -3.6647477 2.8040805
22.17314 7.1716952 5.482585
7.0759592 1.5009365 3.98277
17.379335 6.4393644 5.1060786
9.0109205 -1.3913434 3.3429012
18.196144 2.9079812 2.8100476
12.167671 3.312211 4.8742447
25.11281 8.8706141 5.8091936
20.030434 -0.17603603 3.830255
9.0083055 -6.7186823 3.8063078
12.8504 4.6440015 4.333127
26.443794 9.2324162 6.2943163
20.109844 3.9786005 5.7270932
13.835099 1.9978454 5.2655559
25.154858 7.450007 5.8025551
9.6593876 -4.3203864 1.5622387
12.656843 4.5273771 4.0616808
10.187284 -8.4302769 1.614958
7.4730825 2.7450371 3.4974225
11.373264 -0.098992392 5.0737991
4.5205154 -3.2391572 3.1691408
8.6503754 2.6618149 4.1571245
4.7542806 0.56743699 0.67152452
19.478928 0.89109206 4.3276691
10.411461 -0.97465187 4.2269468
19.779163 6.803205 5.6187215
8.500042 1.5302551 4.0336781
18.1147 -1.357324 2.2837334
17.673401 6.7686443 4.7095389
9.5379105 -7.3573174 1.4265711
10.692455 4.8877897 3.3747282
15.57136 3.8219175 4.7772474
8.2118149 -4.6731396 2.9602056
10.461817 1.2597313 4.5195913
12.012858 -1.0187311 4.4717622
8.9421911 -2.3686178 2.20469
13.292393 3.7713141 4.8347988
7.8795109 -5.9077864 1.8260132
9.8879824 -8.6640358 1.146493
21.486969 7.9109468 5.7257643
25.880302 7.0863419 5.9895415
19.978382 0.39069787 2.78566
6.0637603 -4.9860287 4.4122715
17.448076 7.5998087 3.6899412
16.430456 5.8037076 4.896059
11.655278 -1.1516325 5.0110512
7.2724743 -1.0204461 3.7017586
5.6542225 -2.1127012 4.6096325
5.2278547 -1.8736306 3.3009534
18.643524 -1.7761382 3.8316953
6.8921814 2.6211672 4.2669683
7.1938853 -1.4278173 4.7265329
4.2426329 0.048608817 4.3098536
11.829225 1.8305559 4.3730183
18.614693 5.1344242 5.41927
13.46526 0.84732956 5.2412906
7.1510863 3.6070256 3.7636826
7.0412974 -1.8698668 4.7226715
10.526866 2.9360845 4.7676973
10.276155 -7.7180867 3.4575539
28.312433 9.1241083 6.4157853
9.3473911 -8.1997442 2.3457556
27.670395 8.3455544 5.9916472
8.9086828 1.4167261 4.0941629
7.9955049 1.1478434 3.9223616
5.6527853 3.231977 3.8254371
10.509481 2.2944274 4.163002
18.276999 2.57725 3.3071597
17.624439 -1.6274637 4.1934476
9.1330662 1.017531 4.1010799
7.9687824 -4.2759285 4.4184489
13.645336 1.297323 4.5562887
19.838505 0.66523635 3.9755235
28.619146 10.9072 6.2697468
18.290554 5.5227313 5.5678964
4.1049948 1.1209522 4.1500797
7.9616041 -8.359767 3.1580343
19.244619 -1.9478695 2.0226743
22.504585 7.9749241 5.5669584
19.628222 1.5587088 3.0987699
18.956436 1.0632986 4.6237049
7.6874957 -3.2524168 3.8647041
9.0806961 -1.9441853 2.2112415
12.912525 3.0245581 4.5214434
6.6050487 -2.4355261 3.5768497
8.7850838 -5.1114531 3.6230264
11.612996 3.2078676 4.7562304
22.525883 6.747582 5.9890285
4.0214138 2.0424545 3.7608685
8.5792103 -3.1340842 4.7273951
18.558064 5.4178586 4.2974663
8.4426575 -5.033061 1.30601
6.0287719 -5.048389 3.5355289
19.927141 0.7140227 2.7734725
10.025134 -6.6627164 1.1232061
20.026093 7.5739293 5.5550265
7.5761414 3.5307851 4.117897
10.632965 -2.3080978 4.3871231
26.287331 9.0173607 5.9079452
14.642145 1.4261978 4.6796722
