# .PCD v0.7 - Point Cloud Data file format
VERSION 0.7
FIELDS x y z
SIZE 4 4 4
TYPE F F F
COUNT 1 1 1
WIDTH 1521
HEIGHT 1
VIEWPOINT 0 0 0 0 0.5 0 0
POINTS 1521
DATA ascii
0.52273762 -19.504807 2.3513703
-0.59561503 -20.242336 2.3725939
2.433691 -11.416001 6.1517406
-1.5622448 -27.125031 7.197382
2.5405684 -18.646637 4.1147661
-2.3166461 -26.488548 3.6322427
-1.8349774 -31.038818 6.1988845
2.5501797 -23.081638 5.856463
-1.5405898 -18.384615 2.7877593
-1.9600253 -16.737446 6.8499818
1.8403171 -26.883957 3.0337427
2.2040417 -25.097328 3.449131
-1.4929515 -14.91861 7.2519717
2.5510812 -28.784443 5.3082623
1.5785003 -27.931202 2.8548145
-2.19347 -14.893152 6.5600796
-0.37570569 -20.701057 2.3368924
1.3955395 -17.29451 2.6988704
1.2555664 -22.151051 2.6240468
1.6900858 -31.956142 5.4930029
1.7328479 -15.492071 2.9455442
1.3598539 -26.210608 2.6797943
0.30575562 -17.411936 2.3300049
-2.0543249 -31.361046 4.8957934
1.5912629 -15.924353 7.1735687
2.0030634 -16.061382 6.7965345
-0.12581757 -20.924568 7.6906271
-0.41953334 -28.584444 7.6040778
-1.9422472 -28.898701 3.3050013
2.5704923 -12.122053 4.2134151
2.6023531 -27.341576 4.3184481
-2.6869416 -25.399149 4.8530149
2.6631601 -17.599548 5.3914227
-0.55247957 -30.686501 2.7076225
2.6568866 -14.150375 5.4551358
-2.6086936 -10.569978 5.6635647
-1.0325179 -32.648087 3.5242565
2.6312029 -21.945564 5.5893588
1.6709254 -23.006199 2.8947244
-1.3233875 -26.149179 7.3426003
-1.0500538 -31.956142 5.7835164
-1.443959 -32.022976 3.7065802
-1.0300233 -25.188707 7.4985142
2.6939847 -12.541648 5.0783744
1.4317682 -26.314035 7.2846723
-0.21981859 -28.841303 2.3956997
-1.9368947 -27.418636 3.123589
2.2682188 -27.274485 6.461298
-1.7146823 -26.518028 2.9306355
-0.30446443 -31.956144 4.2036409
2.6086686 -17.55571 5.6636472
-1.2358634 -11.901167 7.3893809
0.58084285 -31.956144 4.9360161
2.2404256 -11.28928 3.4934678
-2.0581138 -29.111248 3.4865344
1.0434321 -10.16168 2.5106506
2.4692707 -21.325729 6.0851793
-2.1244187 -10.916407 3.3521039
1.7034388 -16.970819 2.9214082
-0.38430911 -26.098297 2.3377392
1.0060757 -34.040924 4.2772579
-2.2318265 -30.103197 5.8105254
2.2466826 -30.601398 4.8821664
-1.0689499 -20.774067 7.4785933
2.6769261 -27.67477 5.1033459
1.3711921 -31.956144 4.752089
-0.38216746 -10.807882 2.3375292
1.5476449 -19.860012 2.7935491
2.669982 -19.814291 4.6807747
0.4049058 -24.156157 2.3397679
-0.45880222 -20.216829 2.3450749
1.1538988 -33.992344 4.8293676
1.5371 -28.282089 2.85144
2.2012348 -28.984983 6.3070736
0.33136079 -18.916723 7.6703887
1.1891459 -27.046741 2.5885415
-0.60269797 -29.95936 7.41675
0.7989502 -28.61026 2.4989526
2.3510749 -25.289333 3.6966455
0.1772999 -26.730385 2.3173559
-2.0896838 -21.693176 6.6889658
0.20133033 -12.676172 7.6831927
-1.9178492 -18.772223 6.9023576
-0.6325137 -10.031451 2.1584759
0.53004861 -28.740374 2.3743834
2.6510589 -18.040258 4.488596
2.5424919 -22.056389 4.1211081
-2.5397182 -19.684669 4.1119633
1.9795626 -10.580918 2.9339867
1.177259 -26.85009 7.4207039
-0.23236424 -27.539785 2.323885
-1.8277421 -13.539942 6.9794927
-0.39103466 -17.146109 2.3384025
-2.6889946 -18.903246 4.8738651
1.7220844 -12.39169 2.9367108
0.40191951 -14.433059 2.3394737
-2.3880336 -15.809793 6.237154
-0.11958805 -34.507137 5.5435228
0.8232553 -12.672491 7.5612488
-2.1286988 -20.00629 3.3573191
-1.8389137 -16.593306 3.0325909
-1.735269 -14.890169 2.9475307
0.098352604 -32.099205 7.0219364
0.41691947 -29.152155 2.8301957
1.0863483 -12.905576 2.5335913
-1.6054704 -22.718075 2.841006
0.25534558 -34.871914 4.1469774
1.1816794 -28.979849 2.6946211
0.98633027 -26.75769 7.5117717
-2.2861984 -10.066151 3.2320912
-0.92324018 -28.789013 7.4528599
-0.090692475 -21.623528 7.6940856
-1.7120645 -17.397951 7.0744276
-0.27853218 -10.249093 7.675591
1.4724247 -17.158829 7.2629428
-0.85151869 -12.121344 7.5526743
2.1138608 -15.083482 3.3392377
-1.8330042 -14.610744 6.9751735
2.1641488 -29.121832 3.6568947
0.80024326 -34.215099 4.082952
-0.5775671 -20.438784 2.3671191
-2.2045367 -28.516144 6.4050269
-0.45661694 -32.656754 3.2006888
-1.5433846 -27.25502 2.7900527
1.3831795 -16.056961 7.3106432
-1.1221833 -13.312868 7.4501414
-2.0193851 -12.37028 3.2241118
1.7056911 -21.189203 7.079658
0.61961013 -19.414064 7.6230369
-1.5184808 -33.009991 5.1794043
0.56109619 -11.10671 7.64079
-1.305871 -32.4328 6.1673942
-2.3147798 -13.150967 6.3741937
2.3830051 -12.187284 3.7563736
2.6835985 -14.304613 5.1838541
-2.0086842 -31.353333 4.502449
2.0062037 -20.980755 6.7926354
-0.33935374 -10.232664 2.1651423
-0.21114703 -20.921659 2.3206892
-1.8292617 -17.611443 3.0246694
-2.6356075 -13.025352 5.5748405
-0.32868379 -30.267319 7.424613
-1.649869 -11.568733 2.8774438
-1.583056 -14.680401 7.1803036
0.58785456 -17.839752 2.37024
-2.2409346 -30.491468 4.5472145
0.99328589 -32.473087 6.5648403
1.5937245 -15.634447 7.1715479
-1.2432492 -31.944086 3.4423397
-2.0287895 -12.089938 6.7645869
-0.53538662 -23.559853 7.6485901
-2.1130595 -30.496832 4.094553
1.1540726 -20.611618 7.4330969
-0.28913331 -33.456451 6.2176356
2.4961996 -18.973969 6.0344157
-1.9412918 -21.892811 3.1289475
2.1125369 -24.176844 6.6605854
-1.8447001 -31.168541 3.9018004
0.57455504 -29.591875 2.5211923
2.4549294 -23.737226 3.8909137
-0.29620904 -32.933624 3.2352939
-2.4782438 -14.784434 3.934525
1.0140731 -31.956144 3.757674
0.15574312 -34.805096 5.3539453
2.6652441 -19.333241 5.3702574
2.5189986 -16.069191 5.9592562
1.9151165 -27.605804 6.8950863
-0.85383558 -12.799736 2.4509227
0.38100681 -21.773596 2.3374145
2.1298516 -23.786686 3.3587239
1.0532017 -27.534773 2.5169487
-0.46358809 -22.139893 2.3455462
-2.6591117 -21.46373 5.432539
-0.30477139 -14.206747 7.673007
1.1935046 -21.731441 2.5908713
1.6689974 -21.767815 7.1097727
-1.4802734 -14.572145 2.7441654
2.6295943 -23.522203 5.5946617
0.91080111 -13.6903 7.5346875
0.92002189 -33.725021 3.9202147
-1.3056016 -15.988043 2.650794
-1.6840377 -29.899313 3.2059844
2.6765113 -24.140244 4.7470856
-2.2495744 -25.123058 3.5067799
-0.096012063 -18.485046 7.6935625
-1.4501497 -22.564833 7.2748489
0.81733686 -14.444286 7.5630445
2.7012098 -18.558741 5.0049953
-2.050168 -11.964589 6.738039
1.2299247 -20.391455 2.6103401
-2.5507917 -10.768288 4.148469
1.46533 -29.373728 2.9131217
-2.6522253 -21.340603 5.5024734
0.80473864 -19.210125 2.4360292
2.4105315 -27.993141 3.8928294
-1.6964271 -12.975864 2.9156537
-2.6814818 -10.202166 5.2053504
-1.3420386 -24.895418 7.3326321
-0.84579849 -14.467868 2.4484844
2.5534308 -26.260992 5.845746
0.71523702 -13.465623 2.4088802
-2.6721771 -14.175411 4.7030668
0.17175883 -31.956144 3.6772664
1.6649256 -20.213263 7.1131144
2.1830609 -25.321039 6.5730057
0.84973872 -27.162395 2.4496791
-0.51353204 -22.268911 7.652451
1.909422 -31.480743 4.289711
-1.2931845 -25.234394 7.3587437
-2.4517727 -15.031854 6.1179142
2.2046559 -30.423058 4.3511996
0.47802022 -33.533363 6.0464964
-0.27469891 -13.346312 2.3269472
2.5540574 -27.372551 4.1592345
-0.17036115 -24.978113 7.6862411
2.2739692 -11.542302 3.5524127
-0.48492 -31.956144 5.2103348
-0.84622693 -30.772041 2.8203206
1.6840794 -30.415802 6.6426873
1.0990642 -26.009075 7.4624977
-1.4836497 -15.730164 2.74597
0.55443859 -22.296551 7.6428099
-2.604785 -10.982727 5.6764507
2.547857 -15.150324 4.1387944
1.4187807 -13.776728 2.7112942
-2.5348775 -12.407944 5.9069095
1.1205099 -17.676188 2.5518517
-0.11062071 -35.331772 4.6897049
-2.444447 -24.620474 6.1316185
2.2172604 -21.870909 6.5305357
-1.0897702 -25.070492 2.5354199
1.128419 -31.573252 3.2071147
-2.219857 -22.698275 6.5273104
1.5307207 -22.929688 2.7796597
0.5709967 -10.141978 2.3651259
2.4583066 -24.876732 3.8972311
-1.2000413 -12.956022 7.4085274
-2.6059175 -14.229389 4.3301978
-2.2411025 -11.309061 6.5009274
1.5209992 -29.947399 6.9255395
-1.2269531 -31.956144 4.3581266
-1.9272113 -17.812309 3.1117892
-0.58925116 -32.308338 6.8588424
2.631217 -24.476305 5.5893126
2.4765518 -28.651783 5.7476048
-2.3987656 -29.820881 4.7261157
-2.6389208 -24.185558 4.4389987
-2.6840725 -18.660538 4.8238769
-1.9046779 -10.541791 6.9163523
-2.3287687 -21.480396 6.3480244
2.5563073 -27.832905 5.7378321
2.5296731 -19.963989 5.9240665
-0.46266538 -10.269185 2.1797161
2.4269724 -14.567576 6.1643085
-0.50106668 -34.560905 4.0524893
2.6926858 -21.125725 5.0915632
-1.5795778 -23.466869 7.1831589
2.1065335 -11.710289 3.3303094
-2.4573503 -27.80146 3.9464846
2.6810374 -10.422469 5.2098641
-1.9438679 -26.410599 3.1320868
-2.6782184 -11.740658 4.7644243
2.4533143 -23.607204 6.1150298
-1.5489731 -25.309317 7.2082748
1.2462832 -25.515686 2.6190844
-0.48361662 -26.411537 2.3475173
2.4993014 -17.39257 6.0241904
1.4797555 -31.034771 3.3286779
2.6165445 -18.394037 4.3652315
-0.69663382 -31.956144 3.8092206
-0.97667921 -16.459448 7.514699
-2.023428 -29.230869 3.4640601
-2.6752899 -13.671488 5.2682338
0.47874892 -32.230572 3.081274
2.2997212 -12.115435 3.6005838
-0.76177001 -10.502883 2.2264967
0.48692197 -26.232182 2.3478429
2.2537415 -22.340134 6.4852314
2.6501176 -11.371242 4.4790354
-2.6433439 -20.065865 5.5493364
-2.5807004 -15.036512 4.2470665
1.2645746 -30.921259 6.8943887
2.3415651 -10.062312 3.6788566
0.94611907 -13.171374 7.5239711
-2.300108 -29.89076 5.7142992
0.83303398 -24.345398 7.5582824
-2.4221106 -27.321264 3.8295231
2.0165801 -22.867365 3.2206929
-2.3080091 -22.294788 6.3868599
-1.4822267 -10.648167 2.7452097
0.92867875 -29.296741 2.5961692
1.2990656 -17.716839 7.3556004
-0.8212384 -25.824368 7.561861
-1.0571185 -31.401608 6.8933177
0.48615891 -30.691912 2.6876049
-0.099759102 -24.466948 7.6931934
0.57946426 -18.211344 7.6352172
2.6813166 -11.433506 5.2070284
1.7931342 -25.071581 2.9950199
-1.0743434 -11.205113 2.5271742
1.2044969 -16.492329 7.406146
2.1083524 -28.444736 6.548584
-2.5487945 -19.470892 5.8610301
0.2675797 -25.843815 2.3262453
-1.8868845 -17.882032 6.930954
-2.6700082 -22.553257 4.6810398
-0.65140092 -34.55426 4.1778674
-1.7156098 -10.916324 2.7870491
2.6556258 -23.132345 5.4679356
-0.49269262 -20.874905 7.6545029
2.6099112 -18.417955 5.6595516
1.4977342 -12.040827 2.753499
2.6790271 -17.953657 5.2302775
2.6997256 -22.507988 4.9828463
-1.9377722 -10.676847 3.1246595
-1.5901793 -20.225174 2.8284569
-0.046686772 -32.683338 3.1339877
0.81448078 -17.962513 7.5639114
-1.3034072 -23.520569 7.3532801
0.20267162 -12.381067 7.6830606
-1.1179159 -14.295163 2.5504658
2.4092689 -12.599309 6.1974277
-2.4485476 -12.689252 3.8789761
2.6834302 -10.188944 5.1855626
-2.5586965 -13.459658 4.1745281
1.8660421 -23.588562 3.0548549
-2.4328005 -24.233025 6.1534061
1.7783841 -31.744251 5.869523
-0.45723531 -10.131805 2.3449209
0.38914657 -35.177803 4.8196154
1.789636 -10.2205 2.9921501
0.56458265 -34.200344 3.867094
-1.789529 -29.831051 3.3125112
1.8002157 -19.941576 7.0020823
-2.5043569 -28.145401 5.8119459
1.359767 -10.556281 2.6797485
2.0806026 -31.138878 5.4700232
0.65279466 -26.495651 2.3899379
1.1562934 -13.403487 7.43191
-2.6712079 -18.793413 5.3096886
-1.1357143 -11.393546 2.5264513
2.0853672 -30.307034 3.9375629
-2.54953 -21.300554 5.8586054
-2.6543725 -13.114345 5.480669
-0.97715205 -32.761787 3.5195129
1.1092151 -13.960004 2.5458148
0.44135323 -19.910084 2.3433568
1.0352558 -34.11591 4.4449492
-2.5199993 -22.868198 5.9559569
1.0740126 -28.437916 7.4121537
1.8293207 -24.786749 3.0247178
2.6781826 -16.250847 5.2388568
2.4108448 -21.952097 3.8084497
2.5212393 -20.550802 4.0510449
0.87533242 -22.206917 2.457443
-0.81850719 -17.091457 7.5626898
-2.040977 -30.496799 3.9431429
-2.4772224 -19.886803 6.070303
-2.6051733 -18.375084 5.6751699
1.9973361 -29.668308 6.4642019
-2.593215 -12.2078 4.2883229
-2.2847877 -12.987041 3.5726495
2.4156623 -25.643955 6.1854677
-0.94627112 -31.956146 5.5953655
1.285465 -10.680748 2.3836927
1.1602634 -23.19459 7.4297876
0.89654815 -28.454355 2.5196819
-1.6779883 -20.98554 7.1023936
1.6102077 -16.111338 2.8448939
2.1406054 -14.928624 6.6257296
2.7007716 -17.560497 5.0094466
-2.0815361 -21.20372 3.2998471
-1.5330799 -29.376205 2.9709029
0.55553037 -27.643024 7.6351166
2.7007995 -10.339376 4.9937534
1.1077039 -20.8442 2.5450065
-2.63555 -13.985477 5.5750303
-2.6186547 -20.998993 5.6307268
0.65254438 -14.674817 2.389863
-1.5927343 -27.502178 2.8305535
-1.6627409 -24.943197 7.1149063
-0.8394289 -14.074381 7.5563421
2.0622904 -31.283705 5.26091
2.150877 -15.482214 3.3843451
2.6189835 -14.522102 4.3732724
0.25334555 -31.125622 7.2625556
-2.1463268 -22.367037 3.3788004
-0.27504185 -19.147947 2.3269806
-2.0659502 -22.803074 6.7184391
2.5637591 -27.705738 5.7531519
-0.31747743 -27.998619 7.6461153
-0.73601973 -33.171097 3.4985452
-0.52535987 -19.711195 2.3516285
-1.8595107 -29.154104 6.7549801
2.6739707 -14.533724 5.2816329
2.0486283 -26.533476 3.2597461
2.2639918 -17.021994 6.4692059
-0.072017767 -12.824951 7.6959252
1.7426093 -25.241871 2.9535546
-2.3701487 -18.013657 6.2706118
-1.2664191 -23.071934 7.3730497
2.5030432 -12.527771 3.9910598
2.5449793 -20.750107 5.8736067
2.0254526 -15.574853 6.7687311
-1.3287418 -33.403698 5.3441772
0.87782562 -13.515056 7.544692
1.5935868 -17.84907 2.8312535
-2.1199412 -23.268082 3.3466473
2.3579297 -21.783321 6.2934704
0.94008774 -31.956144 4.0449095
2.3030059 -12.939589 6.3962202
-2.6706707 -19.663063 4.6877708
0.18118522 -18.736343 2.317739
-2.663661 -10.860595 4.6165781
2.0086801 -31.473051 4.7490478
-1.766022 -31.699617 5.9224739
0.04034334 -20.872349 7.8553843
1.699838 -25.789688 2.9184527
1.1760148 -31.956142 3.8539176
-0.9821564 -27.502148 2.4898469
2.1897609 -12.35147 6.5646858
2.6582322 -22.018717 5.4414668
0.12061179 -14.163233 2.3117747
2.670671 -14.043873 5.3151422
-0.54478276 -33.691055 3.6151838
-2.0524857 -18.368635 6.7351604
0.67359364 -29.9254 7.3993111
2.5020914 -12.134788 6.0149927
-2.4051661 -21.451298 6.2051034
-2.601743 -15.0721 5.6864796
0.11652987 -12.980902 2.311373
-2.6681843 -12.103923 5.3403969
-1.7108101 -11.176371 2.9014754
2.2100153 -24.780088 3.4564102
2.302063 -18.727783 3.6049643
1.2056584 -17.080772 7.4055252
-0.2782113 -26.57933 7.675621
0.78585517 -20.963768 7.5725965
-0.75518835 -26.235094 7.5819006
-1.9022253 -28.203209 3.1624653
-0.6158452 -19.477976 2.3787303
1.5609715 -29.177414 7.0329571
1.0917805 -33.755619 5.4734592
-1.7888035 -20.054117 7.0114493
-1.5372367 -15.10911 2.7850075
1.0965992 -31.956146 4.7386379
-0.46586436 -21.810505 7.6571445
-0.52248645 -20.728149 2.3513458
1.2251449 -32.690662 6.1113539
2.0280075 -20.898643 3.2346179
2.6006999 -19.584288 4.3129988
1.1323563 -14.465309 7.4447041
-0.12782943 -11.09929 7.6904302
-2.1420128 -25.900869 6.623981
-0.88761985 -31.956142 3.6885791
-1.2242123 -33.08358 5.8622022
2.5529423 -18.188766 5.8473558
2.6887755 -13.94199 4.8716388
2.6750166 -25.591728 5.2710094
2.3720624 -20.362886 6.2670321
1.8917863 -10.188529 3.075984
2.6039846 -20.418568 5.6790886
0.70427251 -16.649759 7.5973492
1.6135774 -31.64789 3.7587843
2.6604731 -25.095995 5.4187078
2.6178694 -25.263977 4.3695993
-2.5606327 -28.067652 5.6499453
2.5787566 -19.467396 4.2406588
-2.002506 -15.149126 6.7972269
1.1998191 -11.890444 7.4086456
1.9058826 -10.001158 6.9153633
-2.6987448 -20.509003 5.0300303
-2.6538172 -21.622147 4.5166068
0.73795867 -33.227169 3.5233068
2.1035485 -31.137302 4.7301087
1.7093256 -23.881268 7.0766754
-0.23662737 -31.956144 6.7162232
2.0529516 -24.810743 6.734581
0.18447517 -27.272043 7.6848507
-0.25893125 -26.312895 7.6775198
0.93902087 -31.056482 7.0649958
2.2326953 -11.615667 6.5113683
1.5874374 -12.251933 7.1767087
-2.5733368 -27.771358 4.3000021
2.6136162 -28.034983 5.4051485
-2.6771226 -25.966112 4.753294
-1.1316916 -19.871145 2.5578291
-0.26583993 -33.221001 3.3214185
-0.17600481 -31.956144 3.1374173
2.0861936 -29.695526 3.6857066
-2.664628 -17.595036 4.626399
0.76831329 -19.444494 7.577919
-2.5584583 -19.044382 4.1737428
2.0592825 -22.455891 6.7267189
2.3235304 -29.561445 5.8511682
-0.43293777 -23.889408 2.3425281
0.93720013 -33.82373 5.6030545
-2.5896246 -15.310713 5.7264285
1.9928433 -26.187422 6.8092265
-2.6272383 -17.540394 5.6024303
2.4822688 -26.982693 3.9420545
0.094846018 -33.99926 3.6266942
2.4696991 -23.035921 6.0843778
-0.24691401 -19.30135 2.3242111
-1.1393975 -33.170841 3.8771534
0.12455562 -24.626659 2.3121629
-1.2767767 -33.695862 4.7616544
-1.5793056 -32.850998 5.1567817
-2.0901909 -25.387737 3.3103938
1.6884792 -17.803377 2.9091308
-2.653089 -23.689686 5.493701
-0.42257732 -31.956144 3.8851197
0.67010999 -34.484161 4.1438379
1.8243647 -31.871485 5.6099958
-1.2680899 -11.687403 7.3721561
-2.532937 -25.737583 4.0896091
-2.1328311 -29.045052 3.5783453
-1.1359162 -25.313787 2.5600872
-2.4135947 -29.72892 5.2997155
2.6730835 -10.411057 4.7122741
-0.42861459 -18.679596 2.3421025
-2.6665535 -14.181959 5.3569603
2.0216146 -29.819016 3.6081793
2.6853979 -14.050853 5.1655788
2.675693 -24.716791 5.264142
-2.1262755 -16.267323 6.6435242
-0.367643 -31.956142 3.1152747
2.6639891 -15.429514 5.3830051
1.5473884 -19.118771 2.793339
2.2930648 -12.65633 3.5881324
-1.3404295 -33.568344 4.8572893
-0.75336063 -25.173805 2.4204438
-1.8740196 -24.694548 3.0614016
-2.4486396 -14.982716 3.8791487
0.1843974 -22.151318 7.6848593
-2.4088535 -24.361435 6.1982055
2.5015314 -20.658678 6.016839
-0.45075077 -14.322845 2.3442822
-0.10522693 -30.545862 7.3940902
1.5509385 -30.449314 3.2268031
1.7341279 -31.873384 5.8776383
-1.350547 -13.116505 7.3280849
-1.5267081 -10.93167 2.7763669
-0.66814041 -31.956142 5.916748
0.45804864 -28.831856 2.4687366
-2.074446 -22.984505 3.2912073
-1.380527 -10.335999 2.6908455
-2.6814048 -15.784604 5.2061305
-0.98461598 -19.584713 7.5122914
0.5943898 -11.742385 7.6306887
-2.2875166 -29.82181 4.1970291
2.4029679 -29.151646 5.7867622
-1.2709348 -26.25544 7.370635
-2.0241795 -31.380892 5.3722563
-2.1306133 -20.91988 3.3596525
-2.140481 -27.317713 6.6258831
-1.7489578 -21.830444 7.0441499
2.3270154 -23.700691 3.6516395
0.98582447 -25.10605 2.4909596
-2.1846278 -29.966116 3.9836726
0.24271215 -34.887814 5.2686672
2.0142794 -22.75835 6.7826061
-2.633157 -27.623568 5.5501423
1.13714 -20.821169 7.4421468
-1.7847345 -18.279072 7.0147877
2.650434 -20.338387 5.5206676
0.25518233 -20.428488 2.3250251
-1.8286104 -21.910021 3.0241351
1.168011 -18.597233 2.5772438
2.6687322 -24.692173 4.6680818
-2.5102363 -16.259666 4.0147734
2.5692737 -21.418194 5.7935171
1.7331483 -31.383984 3.8121085
-1.1341138 -10.964851 2.5591247
2.6974154 -25.85462 5.0435305
0.532098 -24.049404 7.6495881
-1.4666339 -27.336561 7.2660379
2.5609426 -10.780621 4.1819334
-1.2610739 -25.351143 7.375906
1.2294286 -33.591476 5.4062238
-1.476595 -11.542265 2.7421989
-0.79832816 -25.408604 2.4340844
1.8405844 -20.25543 6.9689522
-2.4697475 -24.139874 3.918632
-0.39876744 -29.055916 2.2742987
-1.7532558 -14.143082 2.9622927
2.3238816 -19.08712 6.3571668
-0.56386721 -11.77456 7.6399493
2.4663086 -27.266665 6.0907207
1.6837571 -31.956144 5.3336535
-0.88948309 -16.312973 7.5411553
0.71597368 -31.956146 6.4000883
1.3922195 -33.375168 5.0837626
1.4009917 -17.458168 7.3011231
2.6908383 -26.74724 4.8925896
-0.95438814 -31.069729 2.9506004
0.43813616 -19.02981 2.34304
-1.8532917 -27.251282 6.9585238
-1.8983135 -14.786324 6.9215746
-1.7925243 -21.574343 7.0083952
-2.5687079 -24.268326 5.7953825
-2.1945941 -15.697985 3.4376183
0.41826859 -11.306107 7.6618314
2.5244422 -23.203297 4.0616045
1.604389 -24.157795 7.162796
1.1667087 -25.781483 2.5765476
-0.41565716 -10.249371 7.6620889
-1.7787304 -29.031231 3.1336279
1.9668519 -10.353983 6.8415041
2.1053777 -28.108295 3.4002044
1.3018576 -31.579067 6.6375914
-2.4393733 -17.429995 3.8618145
-1.0547669 -17.070446 2.5167089
0.43695757 -11.154572 2.3429241
-1.4363656 -31.956142 4.87362
1.5055434 -11.597906 2.758997
1.8191017 -30.44013 6.4573436
-0.43411934 -31.249664 7.2062216
-0.1294677 -18.093977 2.3126466
1.9352291 -25.250589 6.8807745
2.6399412 -17.346228 4.4423618
0.41533294 -33.281559 3.3916688
-0.73685598 -33.34943 6.1140823
0.40983582 -26.332943 7.6626611
0.9847647 -34.24527 5.0858655
0.45123088 -13.758679 2.3443294
2.1556478 -23.252724 6.607049
1.691444 -24.455412 7.0913506
2.5201008 -29.185503 4.9017177
2.6695404 -12.900024 4.67629
-1.5714424 -31.890528 6.182281
-2.3902817 -22.305832 6.2329483
1.4104736 -15.273272 7.2960548
2.5015409 -25.631395 6.0168076
2.4362192 -29.602495 4.6878214
0.20911323 -13.510733 2.3204889
0.31141502 -24.310978 2.3305621
0.41846269 -11.983423 2.3411031
2.0061615 -21.559826 3.2079966
0.7024799 -24.56908 2.4050095
2.5210369 -19.193735 4.0503778
2.4888256 -16.597063 6.0485969
-1.6979718 -16.547388 2.9169211
0.046031028 -28.790173 2.3296068
-2.6811109 -10.607953 4.793798
0.62954134 -32.966587 6.523428
2.481113 -29.153755 5.5222607
-2.4483948 -11.189631 6.1242332
0.23337749 -17.001402 7.6800365
-1.8636981 -21.007458 6.9499826
-2.6569908 -18.786058 5.4540782
2.2998178 -26.593735 3.6007643
0.26710749 -12.506618 2.3261995
1.7656296 -22.477688 7.0304666
0.65599692 -30.705656 7.2570276
2.2445006 -15.582695 3.4984336
2.5553112 -24.796103 4.1633682
1.873677 -21.171097 6.9417934
2.1047523 -27.017542 6.6702528
2.2337308 -27.037874 6.5100818
-0.38219473 -11.219801 7.6653833
2.5483088 -13.595453 4.1402841
0.92140687 -30.151903 7.2819285
-1.023749 -25.940397 2.5024636
1.5039049 -10.375214 2.4168158
1.8537391 -13.141558 6.9581566
2.1851504 -22.038462 3.4261103
-1.8925494 -25.678999 3.0766089
0.79288208 -31.956144 5.466805
-2.6162648 -23.319656 4.3643098
-0.20378032 -24.181368 2.3199632
1.2142973 -32.136009 6.5073447
-2.5024939 -20.926746 3.9892483
-2.5523219 -20.911152 4.1535144
-2.2620356 -27.819229 6.4200616
0.85477591 -32.040306 6.8181119
2.6889598 -22.575115 5.1294031
1.943779 -20.871637 3.131978
2.5630381 -20.689741 4.1888413
-0.93516719 -18.956608 7.5272946
-0.81170833 -31.956144 5.6395402
-0.84426796 -30.51569 7.2360897
-0.38797912 -28.931572 2.4197252
0.88710272 -16.041058 2.4610138
-1.1556952 -24.793188 2.5706604
0.12718046 -31.914295 7.0765405
-0.91536123 -26.302549 7.5333033
-1.7963562 -17.356701 2.9976642
-0.3607859 -22.010134 2.3354235
2.4982712 -11.883556 3.9753289
1.7101059 -22.064096 7.076035
-1.4968857 -31.64407 6.396615
-2.4754086 -21.258667 3.9292221
-1.8725879 -30.196629 3.522408
-1.7430601 -31.437862 6.1354775
-1.8820115 -20.194445 6.9349532
1.9653785 -15.016611 3.1582997
2.5616448 -13.101308 4.1842475
-2.3771169 -13.098152 6.257576
2.1985214 -13.059758 3.4424038
1.4149542 -32.240906 3.7738752
-1.7619944 -23.618896 2.9694638
1.5770117 -27.705517 7.1680737
1.6703901 -20.597383 2.894285
-0.44995996 -17.866951 2.3442044
-0.54885918 -26.408485 7.6445022
-1.4529271 -15.404533 2.7295473
1.4235888 -32.804226 5.7658868
1.7278941 -21.585438 7.0614362
-2.1382589 -29.745186 6.1946621
-1.1637921 -22.654215 2.5749886
1.2215353 -30.815342 6.9596195
1.8450083 -30.935476 3.7718341
-1.7550112 -10.359596 2.5769751
-1.7911644 -11.772051 2.9934044
0.30177313 -27.198902 7.6733007
1.369754 -14.854258 2.6850865
-1.4321358 -20.860559 7.2844768
-2.3844621 -24.604763 6.2438354
-1.0428578 -34.142715 5.077342
1.5487651 -22.659708 7.2084465
0.36522245 -17.225811 2.3358605
1.9111233 -29.830536 3.4666102
-2.0028877 -22.017982 6.7967529
1.7167757 -19.219978 7.0705614
1.1113417 -22.746494 7.4559355
-1.9835563 -31.627281 5.0381083
-0.61252463 -12.073627 2.3777232
0.44845968 -35.097546 4.9193983
-0.24428405 -35.273323 4.6604047
-2.2674341 -26.178343 6.4627662
1.7789124 -32.245243 5.2063522
0.7789405 -25.428524 7.5746937
2.6458421 -23.562304 4.4618158
2.2870612 -13.707663 6.4260483
0.89410239 -29.664894 7.3698406
0.05756129 -35.121555 4.2968693
2.581027 -24.758129 5.7547712
-1.2005208 -26.602814 7.4082708
2.2800062 -30.081512 5.6580815
-0.54467952 -13.871844 7.645771
1.091151 -31.050236 6.979301
-0.0076321429 -10.630441 7.7022653
0.010176611 -34.835175 5.346282
2.6519215 -25.234737 5.5055604
-2.662251 -17.286673 4.6022596
1.8677405 -29.916494 6.5615625
-0.12787902 -21.31126 2.31249
2.6575477 -21.087023 5.4484205
1.7231622 -15.106453 7.06532
-0.3192513 -31.956144 5.8144827
-2.4813128 -29.21723 4.5389223
0.70798236 -12.14463 7.5962238
2.6680608 -19.663242 4.6612635
2.6451981 -27.583818 5.5124116
-2.1744246 -30.921537 5.0943255
1.4002491 -29.903196 7.0388064
-0.34301189 -25.54446 7.669241
1.535208 -18.568933 2.7833424
2.6797161 -25.742626 5.2232819
1.9372308 -11.957191 3.1239998
-2.0247915 -30.410049 6.1319103
1.4393073 -33.255527 5.0482349
-1.2262526 -23.808182 2.608377
0.026033543 -10.410874 2.1753354
-1.7610645 -24.351864 7.0342131
1.549051 -30.883354 3.3470709
2.4172037 -27.02367 3.8203442
1.0860202 -19.305878 2.5334153
-2.5262909 -12.802393 5.9352169
-1.9414482 -31.727106 4.8157673
0.15471932 -13.965817 7.6877828
-2.2591951 -19.523605 6.4781795
-1.8525406 -31.260689 6.0261798
-1.0912691 -18.734985 2.5362213
-2.2695267 -21.746105 3.5441024
2.4179025 -12.719571 6.1812763
1.2471511 -13.779999 2.6195488
-0.38026202 -18.973133 7.6655736
2.258883 -21.527487 3.5241928
-1.1069901 -15.845981 2.5446253
2.3523016 -11.300472 3.6989398
2.3279583 -23.549301 6.3495398
1.5841601 -15.311428 7.1793976
-1.6074456 -10.112263 7.1602879
-2.6645069 -23.79887 4.6251698
-2.2550035 -27.020136 6.4836645
-2.6975327 -17.310162 5.0423403
2.3658054 -28.903093 6.0138073
-0.88835937 -32.219028 6.7418814
-2.5360057 -11.848619 5.9031892
2.2318077 -19.148363 6.5124698
-2.6463814 -21.52001 5.5393219
2.1184821 -24.6166 3.3448691
-2.6605437 -27.727512 5.2194943
-2.5669904 -21.977457 4.20187
-2.5105772 -13.247251 5.9870176
2.0918205 -28.134796 6.6083555
2.4738405 -29.266567 5.4762931
-1.2816826 -29.94553 7.115952
1.8532323 -11.051101 6.9585729
-2.3452401 -10.957803 3.6857307
-2.334446 -19.62451 6.3374028
0.86827904 -20.828707 7.5475888
0.43556774 -27.811853 2.3585081
0.79685056 -14.639549 7.5692606
2.6877148 -16.476967 5.1420484
-1.9314574 -21.225975 3.1169634
-1.0364128 -19.329966 2.5068972
-1.1986318 -14.082836 2.5936129
0.48670402 -33.119606 6.4608784
-1.279322 -18.149927 7.3661532
-1.0701323 -13.817386 7.4779615
2.2586687 -28.661915 6.275372
1.9156274 -18.226648 3.0976732
-0.25051919 -17.72813 2.3245661
-2.4371061 -11.690798 6.1453509
2.5249381 -23.072262 4.0632396
-0.085368544 -35.06348 5.1708336
-2.6245141 -20.239594 4.3915043
1.1336658 -32.971493 6.047533
-2.669301 -23.84259 5.3290544
2.6442924 -25.420816 5.5462079
-2.6429634 -19.780312 5.5505905
2.3868968 -28.264088 3.8980637
2.3960266 -23.935347 3.7807312
1.3361789 -18.672934 7.3357639
1.3310171 -31.956144 6.011796
-1.5055717 -26.844398 7.2438936
-0.15054962 -15.8288 7.6881919
-0.35422119 -27.652889 2.3419309
-0.63454723 -33.811535 3.7245784
-1.5627524 -26.443262 7.1969662
-2.3343141 -25.471184 3.6652927
-2.2867024 -21.914888 3.576231
2.0361221 -30.712212 5.9597673
-2.3290911 -29.601568 5.8057446
2.1526194 -17.449305 6.6108098
-1.3496336 -27.885326 7.3020926
2.5613546 -14.027576 4.1832914
-1.3469934 -28.051605 7.291482
-2.1115451 -18.6658 3.336416
1.0035732 -25.385523 7.5065398
-0.65407592 -32.200371 3.1308043
0.77272165 -31.956144 3.7899177
-0.59638739 -29.280266 2.4905744
-2.2447135 -30.632423 5.0622764
-1.7913839 -31.821346 5.7827077
2.0546885 -10.255929 6.7324252
-0.419871 -26.273239 7.6616726
1.3968588 -19.74403 7.3033319
0.2978828 -20.319056 7.6736851
-1.3713505 -23.78384 2.68594
0.41489437 -28.318462 7.6189804
2.6932931 -21.818966 4.9175196
2.6532795 -24.837446 4.5111475
-2.2974508 -24.786518 3.5963368
0.12017047 -14.147888 7.691184
-2.6522913 -11.169329 4.5011091
-2.6686721 -26.232113 4.6674719
1.2725228 -23.644424 2.6331112
-1.0494047 -33.445511 5.8180079
-0.2216154 -24.443413 7.6811948
0.47975802 -29.545198 2.3829799
1.0026405 -22.950714 2.4960606
-2.6698604 -24.873363 4.6795397
0.35326844 -24.44482 2.3346832
1.9072037 -25.387993 3.0886359
2.6592379 -10.07337 5.4312563
2.1618233 -14.829663 3.3976843
1.0959523 -34.124619 4.832056
-0.66992736 -27.585327 7.603776
1.4454782 -28.638744 7.1955166
0.042059835 -26.100578 7.6988745
-2.6945827 -22.821697 5.072298
0.30961677 -10.181673 2.3303854
1.4943972 -12.788356 2.7517149
2.6530969 -19.467358 5.4936242
2.1608927 -24.463017 6.6005354
0.13836472 -26.184629 7.6893916
0.58508861 -16.654493 2.3694007
-2.010736 -18.495842 3.2135713
-2.6593766 -27.001661 5.4298458
1.3591826 -19.094017 2.6794355
2.3304489 -29.870079 5.6239076
1.919909 -23.408016 6.8997998
1.0624995 -32.955494 6.1520729
0.84733719 -31.21785 2.9332047
1.680635 -12.31165 7.1002216
1.3264589 -26.325954 2.661943
-2.6523995 -13.525835 4.5022111
2.447685 -20.589964 3.8773625
2.6927793 -19.110655 4.9123006
-2.7009435 -15.253406 4.9952164
-0.067014128 -33.816433 5.9603782
2.1153166 -19.110153 3.3410118
-2.1764815 -30.149384 5.9622889
1.4888928 -18.659962 7.2541413
2.5034261 -21.578396 6.0105929
0.29015863 -31.956144 6.2172494
-0.96708006 -33.806721 4.035893
-1.4854763 -11.184927 2.7469463
2.6271739 -15.752279 4.4002728
-1.6285386 -24.230991 7.1429758
-1.6812731 -20.643433 7.0996981
0.58479607 -17.802895 7.6335998
-2.6798398 -16.896103 5.2220244
2.0103672 -27.415062 3.2131214
1.5900275 -31.963079 6.1131129
0.85743541 -34.003605 5.5348206
2.6931353 -21.569529 4.915916
2.6114578 -20.167725 5.6544523
-0.7640295 -21.950827 7.5792189
-0.041112565 -30.957663 7.3214345
-2.386982 -21.848497 3.7638128
-1.3851986 -20.513943 7.3095636
2.4829023 -23.474472 3.9432392
1.6694697 -32.010689 5.8937297
-2.6523781 -17.152443 4.5019908
2.4268889 -12.994889 6.164465
-1.9736131 -31.552814 4.6172247
-0.74177194 -34.554688 4.2934709
2.5759315 -13.452196 5.7715688
-0.66233385 -20.665718 2.3928323
1.3015649 -22.464678 7.3542652
-0.2361704 -35.000805 5.1810021
-0.2686342 -22.822205 2.3263497
1.221404 -33.589001 4.3086362
0.98454803 -19.12376 2.4905725
1.5258136 -15.030573 7.2272825
2.6802473 -16.440659 4.785028
-2.3888321 -28.93502 5.9283552
1.9715806 -11.752831 3.165858
1.5925441 -10.507082 7.1725173
-0.21870407 -18.499882 2.3214331
-2.6926827 -13.598894 4.9113221
0.13171567 -22.691593 2.3128676
0.58354151 -23.666002 2.3689315
-0.83882928 -23.113201 2.4463701
0.06464342 -27.292322 7.6966505
0.073986381 -29.088671 2.8636618
1.4539129 -32.993103 4.3662233
2.6686132 -21.754751 4.666873
-2.1375015 -25.577198 6.6295834
2.6749609 -23.750799 5.2715745
0.2741901 -15.925467 2.3268967
-1.883718 -23.916445 3.0693614
-1.9180939 -23.311943 6.9020538
-0.47001946 -25.409237 7.6567345
-0.27287418 -19.426556 2.3267672
-0.61182553 -20.976791 2.377511
0.9182657 -14.743863 7.5324221
2.017719 -20.795506 6.7783346
2.1850889 -20.744873 3.4260352
-2.6885138 -27.412792 4.8689799
0.51131761 -25.906498 2.3502452
2.559617 -12.455297 4.1775632
-0.35050166 -10.377238 2.1848671
0.0065849335 -22.688086 7.7023673
0.3418327 -32.411594 6.8900018
-2.0945182 -30.721273 5.7864933
1.6312339 -14.990249 7.1407647
0.65299368 -32.328045 3.1684754
2.1183624 -30.034685 3.8808093
2.6649959 -24.225414 4.630137
2.3212223 -14.264548 6.3621421
2.3603246 -21.36643 3.7139478
0.05699731 -11.499145 7.6974049
1.2852309 -14.583435 2.6399043
-1.1587731 -17.271446 2.5723059
1.8923219 -21.642996 3.0764227
-2.3080606 -28.595924 6.1934829
-1.5588942 -13.33754 7.2001338
-1.8847404 -31.677832 4.4024076
0.27524459 -26.597588 2.3270001
-1.8072159 -18.918112 3.0065765
2.452867 -14.299707 6.1158667
1.8258188 -29.210136 3.2126768
2.6586797 -27.620678 5.3401623
-2.698662 -22.600937 5.030869
0.11668345 -21.732416 2.3113875
-1.7090666 -23.891283 2.9260266
-1.6942873 -31.938667 4.0846553
-0.10933442 -20.75219 7.6922503
-2.4781394 -29.316624 5.3647842
-2.370074 -18.735538 6.270752
-0.76669502 -19.189648 2.424489
2.5418906 -21.048012 5.8837891
-2.5002563 -19.660387 3.9818726
2.6792531 -26.971977 5.2279844
-1.1728077 -32.505093 6.3212614
-2.2611988 -25.56777 3.5285242
2.4288254 -29.037773 5.7483249
-2.1075287 -12.325279 3.331522
0.25496268 -28.164921 2.3595538
-1.2051215 -21.062868 7.4058123
-1.1257209 -31.035522 3.0399585
2.5249014 -20.685783 4.063118
2.450767 -29.473949 4.5866461
-1.6948075 -15.008146 2.9143243
1.6760632 -18.482687 7.1039734
-2.5676785 -15.56446 4.2041383
-1.6288234 -29.38336 3.0530417
2.5165114 -21.847248 5.9674549
-2.2721627 -28.790878 3.7814095
1.1562073 -26.6478 2.5709343
1.7034502 -28.589592 6.9841881
-2.6785979 -11.978086 5.2346382
1.7077492 -31.14683 6.3422666
2.0593374 -22.578497 3.2727962
1.4451952 -10.315988 7.2774973
0.81404448 -34.054161 4.0024199
1.9081386 -30.471043 3.6694202
0.14985232 -32.71719 6.7911348
-0.99014926 -34.345402 4.8250437
-0.76606303 -30.9622 7.1690316
0.47039539 -16.752129 7.6566982
0.35157898 -26.362911 2.3345165
2.0611541 -14.930513 6.7243958
2.0811853 -13.295835 3.2994204
2.5819376 -12.254663 5.7517691
-0.60834324 -16.712866 7.6264553
-2.244607 -10.973101 6.4965754
2.4482815 -13.202903 6.124445
1.0772791 -10.141623 7.4741421
-2.5311852 -23.762444 5.9190807
-2.6225433 -17.90432 5.617907
-2.3554044 -26.794098 6.2981958
2.6953931 -24.158318 4.9388447
0.42446733 -33.711163 5.8861094
-1.941679 -19.092833 6.8727646
0.80940437 -13.851952 7.5654516
2.1882093 -21.15752 6.5666122
-1.6153626 -20.084627 7.1537905
-2.2987015 -22.135498 3.5986767
-0.86568451 -19.584433 2.4545164
2.3903103 -17.546467 6.2328944
-1.2081947 -13.928282 2.5987248
-0.96907926 -10.655871 2.313448
2.3159449 -26.205227 3.6309311
2.6825459 -11.774897 5.1945443
2.2603464 -13.955489 6.4760256
1.912587 -20.289986 3.0939684
2.442246 -12.857788 6.135736
-2.6779485 -11.617918 4.761682
0.19834602 -28.827305 2.8669448
-0.64581925 -18.749493 7.6150846
2.6966169 -16.281956 5.0516405
0.45531231 -23.010075 7.6581836
1.2056036 -24.10216 2.5973392
1.0403533 -13.295079 7.4938779
2.6921556 -15.025608 5.0969472
-0.43391442 -32.146355 3.0413046
-1.7011333 -13.40443 2.9195161
2.199703 -13.512562 3.4438438
2.5842652 -14.703458 5.7440968
0.0039927876 -20.537868 7.8022161
1.0507325 -23.9182 2.5145521
-2.6732912 -17.215275 4.7143831
0.84128171 -10.129317 2.177546
-1.2677608 -31.237747 3.2119052
1.6052353 -20.653214 7.1621017
-0.67050612 -21.60593 2.3953111
1.1852306 -26.090122 2.5864487
-1.5967157 -11.6553 7.1690941
-0.83293164 -17.796349 2.4445813
-0.52409977 -11.832141 2.3515046
1.5967915 -29.527328 6.9502811
-1.7349085 -25.650003 7.0556793
-0.61500758 -30.421555 2.6736548
0.34479758 -18.851776 2.3338494
1.6182154 -13.204302 7.1514492
-2.0846617 -29.501471 3.6083872
-1.0583152 -29.985994 7.2336502
0.049720749 -20.042927 7.6981201
1.894321 -15.118895 3.0780635
1.6555254 -31.956144 4.5634928
-0.30819923 -30.994923 7.286067
1.5246444 -31.77643 6.2982597
1.6190023 -19.712566 2.8521118
-0.62376732 -31.956142 4.2498488
-1.6514956 -14.182021 7.124136
0.39993069 -10.100719 2.3392782
-2.2998137 -18.974697 6.4021916
-1.6109402 -28.99008 7.0146704
-2.0821965 -17.258549 6.6982641
-0.98684049 -17.314209 7.5116167
1.0119107 -31.956144 3.433207
-1.9278638 -30.067984 3.5545652
-2.5749569 -17.030651 4.2281332
-0.49227229 -28.995201 2.3384433
2.2409627 -19.303921 6.5011005
-1.9579318 -10.45131 6.8525815
-2.6356688 -23.582462 5.5746365
-0.086951599 -31.956142 4.4334078
-1.3781821 -18.364229 2.6895919
-0.87301952 -16.915878 7.5461507
-0.28112429 -20.188202 7.6753349
1.1405959 -20.550892 2.5625889
-2.582562 -18.47839 5.749711
2.5040376 -14.172356 6.0085759
0.74052638 -25.168953 7.586349
-1.214691 -17.426298 2.6021972
-2.1670635 -25.192841 6.5928721
1.7906507 -12.159367 2.9929826
2.3778582 -29.007954 4.0676184
0.66947502 -18.850193 7.6079073
1.4686478 -31.956146 4.5162325
2.4564097 -24.670208 3.893683
1.0345442 -34.05677 5.2311254
-2.6816888 -22.881657 4.7996669
2.6984215 -25.410351 4.9696007
1.5005341 -26.020069 7.2479186
-1.5816488 -32.585255 4.3263421
2.207216 -28.256367 6.445715
1.992497 -13.09205 6.8096571
-1.8769466 -22.553024 3.0638041
1.0567683 -22.515306 2.5177784
2.6726942 -12.729118 4.7083178
1.5453213 -22.174395 2.7916422
-1.8101211 -27.182259 3.008961
-2.6630006 -22.19911 5.3930435
-1.2088916 -15.573397 7.4037971
-2.6875296 -15.078156 4.8589869
-1.3965405 -17.069202 7.3035021
-1.1120996 -32.465366 3.5253527
2.1249771 -24.905443 6.6451368
1.6294338 -29.870747 3.1527781
1.8799413 -19.314337 3.0662618
-0.51424426 -17.518202 2.3505342
-0.443353 -22.367132 2.3435538
-1.1084054 -15.645069 2.5453818
-0.60185587 -28.733299 2.4458039
1.8232 -14.762195 6.9832201
2.6932919 -15.438565 5.0854092
0.9230237 -28.605843 2.5370293
0.91838562 -26.080936 7.5323858
-2.1406789 -15.789125 6.6256375
0.64811802 -31.956146 5.446713
-0.45875442 -21.25491 2.3450701
0.51455373 -29.925167 7.4499884
2.2334743 -21.340042 3.4849968
-2.6645503 -13.60253 5.3773055
0.2728833 -28.717472 2.3913441
1.1675233 -29.756712 2.7890522
2.461344 -26.086809 3.9029126
-1.8019007 -23.821608 3.0022144
0.22847059 -20.009943 7.6805196
1.4052756 -15.190449 2.7040749
2.1208897 -12.484484 6.6502132
-2.4970808 -21.008512 6.0315118
0.10460131 -13.042007 7.6927171
-1.6968799 -19.044399 2.9160249
1.6048647 -26.108261 2.8405089
-2.5738873 -12.975735 4.224606
1.5281456 -14.441641 7.2253685
-0.1393398 -28.837366 7.6154852
-1.2630345 -31.956144 3.623091
-0.4449797 -26.71316 2.343713
0.43951637 -30.912664 7.2852387
-1.3412743 -24.214357 2.6698625
-1.0720303 -25.363903 7.4769468
0.31006089 -15.720984 7.6724863
-2.4826441 -18.299774 3.9427567
-0.35197538 -12.924732 7.6683588
-0.3408733 -31.423473 7.1779027
-0.12796897 -25.022366 2.3124986
-0.029562712 -24.915054 7.7001047
2.5939245 -12.864466 4.2906628
-1.5575662 -19.332069 2.8016915
-0.92177355 -15.055145 7.5313578
-2.1548734 -26.692448 6.6080103
-1.293084 -30.08395 7.0852566
1.1173606 -17.229931 2.5501688
-2.2802281 -18.299103 3.5641203
-2.6829441 -14.713668 4.8124161
2.6951554 -21.943398 4.9364328
2.5160475 -19.492744 4.0339303
0.17881204 -24.00136 7.6854095
-0.6677773 -11.492697 7.6084223
-1.9582474 -29.580183 3.4574454
-0.95240611 -13.282722 7.5220642
2.2561045 -14.671247 3.5189955
-1.5700387 -24.36821 7.1909866
-2.183835 -25.547346 3.4245074
2.6959372 -19.236925 5.0585456
-1.3376017 -15.862398 7.3350039
2.34693 -17.926657 6.3140488
-2.6681507 -23.047951 5.3407373
-2.3001552 -29.248724 6.0509501
-0.99699634 -21.659481 7.5085349
2.5603666 -16.479467 4.1800346
-1.9023712 -13.367846 6.9182453
2.2363312 -14.296072 3.4884784
2.4884136 -28.922798 5.5982862
0.76440316 -21.331844 7.5791054
-2.6531668 -18.750557 4.5100026
-2.0252376 -13.979475 3.2312436
-0.59626424 -27.058538 2.3727899
-2.4799638 -20.127264 3.9377425
2.5661123 -17.030777 4.1989751
2.6649783 -15.691289 5.3729568
1.2230786 -33.040741 5.8871317
0.50457186 -12.17735 7.6533332
2.0275278 -12.512657 6.7661543
2.579402 -21.071014 5.760129
2.5006266 -20.522154 6.0198216
1.7683356 -14.272339 2.9746687
-0.72917455 -17.95084 2.4131074
0.67128158 -21.035656 2.3955464
0.23603751 -18.693184 7.6797743
-0.21899807 -14.419047 2.3214626
-1.2609971 -27.025013 7.3759475
-1.6307204 -25.571747 7.1411858
2.5576234 -15.404907 4.1709909
-0.43790954 -27.378523 7.6598964
0.13461404 -29.252836 2.3930202
0.50943643 -32.968697 6.5610666
-2.5096891 -15.488383 5.9899464
-0.30792156 -21.514908 2.3302181
0.39236519 -18.544472 2.3385332
-0.96618485 -10.34987 2.2543774
1.9778726 -24.051792 6.8278174
2.6865432 -17.502974 5.1539459
2.1448298 -27.825504 6.5816855
1.3954029 -27.21883 7.3041091
-0.80939013 -31.956144 4.8895454
-1.2964022 -17.246891 7.3570242
-0.74453402 -12.322392 2.417767
-2.1213346 -24.977547 3.3483453
1.5079417 -22.628304 2.7609653
-0.71163028 -19.571018 7.5951171
-1.5377131 -31.212618 6.5383015
2.0355427 -23.290817 3.2438004
-0.81202298 -24.25713 7.5646567
-0.13516863 -21.02718 7.8326087
-2.1343703 -29.218006 6.3782816
1.1200337 -12.474501 2.5515981
-0.74038213 -31.956142 5.4716415
2.6663082 -16.22053 5.3594503
2.5306993 -22.478905 5.9206834
2.3657293 -15.591535 3.7240574
-2.4687054 -19.52887 3.916683
0.73235846 -18.130356 2.4140735
-0.10605517 -11.089267 2.2581842
-2.6321037 -20.018215 4.4165254
2.4751961 -18.314781 6.0740938
-2.6520102 -16.49349 4.4982557
-2.700959 -24.940222 5.0075421
0.6251964 -31.522114 2.9313362
1.6013309 -11.981932 7.1653061
-2.5656686 -12.712548 5.8054028
-0.38239905 -24.697422 7.6653624
-0.067764714 -22.804541 2.3065708
2.6982331 -18.945908 4.9676909
-2.6800318 -20.915352 4.7828388
-0.40609443 -28.807932 2.4117603
0.45452401 -15.879054 7.6582618
0.27476019 -23.537247 7.6759615
-2.5253978 -10.674079 5.9381609
-1.5098947 -25.10474 7.240346
-0.34583551 -28.272322 7.6284137
1.7703273 -31.424931 6.0876441
-2.1135554 -30.822815 5.6346197
1.0793912 -19.995216 2.5298717
-0.032378305 -14.595638 2.3030868
1.5492182 -17.684917 2.7948403
-1.8684413 -19.950083 3.056824
0.72265834 -31.956144 3.1822827
0.82029736 -23.597479 2.4407487
-2.2305994 -28.316893 3.6113179
0.70769233 -24.055824 7.5963116
-2.0319507 -26.816317 3.2394228
-2.5269523 -10.505652 4.0698795
-2.5506353 -26.011806 5.8549604
-2.1893609 -15.208522 3.4312413
-1.4072317 -32.834991 4.1122689
0.26570821 -26.176954 2.3260612
0.33967075 -17.763569 2.3333445
2.0149322 -25.808136 3.2186847
-1.671391 -10.270073 2.8951073
-1.0039223 -21.42264 2.4964495
-2.5123689 -11.330719 5.981112
-1.8791087 -11.085704 3.0655794
-1.071543 -28.873096 7.3781815
-2.6971364 -18.206579 4.956552
1.5450885 -32.930965 5.2088099
-1.4317992 -20.374334 7.284657
2.6435943 -20.325787 4.4544048
-2.6119957 -26.527355 4.3502364
-2.6750574 -13.98737 4.7323222
0.46610701 -25.087894 2.3457932
-1.9510422 -19.889711 3.1408293
2.6274297 -25.801636 5.6017971
-2.2067025 -12.668 6.5436473
2.4187689 -28.657124 5.9399691
-1.218574 -31.956146 4.2337227
1.2700465 -24.057671 7.3711109
1.3408642 -30.872965 3.1611042
0.67173147 -30.269957 2.6608889
-1.9126991 -11.492955 6.9087539
2.6124845 -21.342731 5.6510677
2.5885797 -12.672775 4.2730417
1.5800555 -16.314581 2.8201485
1.4340835 -22.872042 2.7194743
-0.69660699 -32.057774 3.1025565
2.033921 -10.430034 2.9265666
2.2952576 -13.457359 6.4107156
0.15089226 -29.770344 7.5190954
2.6676283 -26.102287 5.3460445
0.47789288 -31.446281 2.8630161
-2.3866279 -19.54421 3.7631502
1.4871254 -27.136576 7.255085
-2.6844637 -25.132933 4.8278494
0.8465876 -16.108677 7.5541701
0.88494575 -18.141195 2.4603591
-1.2508113 -21.683577 2.6215053
2.4995847 -23.475132 6.0232563
-1.4124478 -19.421213 7.2950001
2.5158582 -14.420079 4.0333061
1.5576924 -19.355879 7.2011199
2.6104538 -25.941498 5.6577606
-1.7015674 -22.753551 2.9198723
-2.5249472 -14.507065 4.0632696
0.31657812 -25.403633 7.6718435
2.6917021 -16.202759 4.9013615
-0.53202957 -10.662944 7.6496091
2.1490653 -19.735624 3.3821373
1.7120962 -31.956146 4.8036156
2.6936164 -25.046679 5.0821142
1.2429657 -10.798932 2.3968604
-2.6638978 -15.893061 5.3839302
-2.288497 -21.84127 6.4233627
0.3478702 -10.91856 7.6687636
-2.6946578 -14.773085 5.071538
-1.8978233 -27.891443 6.8822122
-2.4408987 -29.646069 5.1777787
-1.2679145 -18.979679 7.3722501
2.1073494 -25.125267 3.3313031
2.6897385 -10.439686 4.8814182
-2.2089968 -30.705341 5.2634511
-1.0189486 -13.535197 2.5010083
-0.70336187 -22.729141 7.5976257
2.3719983 -25.144398 3.7357843
1.8284723 -28.479307 3.1122789
-0.70858103 -23.36104 7.5960422
-2.2897189 -16.568886 6.4210768
-1.295617 -31.956146 4.1201425
0.22131817 -21.294617 7.7415614
-1.1886203 -27.318476 2.5882607
0.11467905 -30.292805 2.5610843
-2.4662504 -28.096556 4.0465012
0.86603928 -20.918877 2.4546242
-1.8767793 -15.36031 6.9392481
0.13398427 -35.312637 4.7887063
-2.1660459 -21.462029 6.5941358
-2.1710923 -13.645996 3.4089794
-2.5252211 -13.618023 5.9387431
2.1451101 -22.57958 3.3773177
-2.6568272 -22.169201 4.5471783
-0.059805829 -28.507042 7.6443057
-2.5295205 -18.49581 4.0783463
2.2862356 -23.668571 6.4275928
1.7628841 -27.347431 7.0327201
1.7111533 -23.754818 2.9277391
2.1305332 -17.969564 6.6382375
-2.0844941 -25.140528 3.303452
-0.28215939 -15.400982 7.6752334
0.04661366 -18.693287 2.3044882
-2.3299341 -29.306997 4.0340028
-0.39881951 -15.245746 2.3391688
1.7776117 -29.645779 3.2476716
1.3961207 -26.891167 7.3037257
-1.6051004 -18.205429 2.8407025
-2.6925364 -23.221729 5.0930805
-0.2801373 -12.197239 2.3274829
-0.15545648 -31.956142 4.29175
2.1129918 -31.017807 5.4740925
-0.5086357 -27.924398 7.6309662
1.3252711 -15.461823 7.3415937
-2.6879456 -18.909048 5.1397038
2.6719513 -27.426262 5.3021393
-2.1090889 -23.535837 6.6648679
2.1713359 -28.357061 3.5135441
-2.6589632 -24.237431 5.4340439
1.3008664 -15.853733 2.6482623
-2.5756698 -19.358389 4.2304831
-2.5713882 -21.06105 5.7865467
2.0568218 -26.719883 6.7297754
2.6621933 -24.658421 5.4012394
-2.6472757 -19.773293 4.4665413
-2.0273643 -14.556842 3.233835
1.8083773 -26.412575 3.0075297
0.14291087 -28.227501 2.3518455
-2.3502839 -25.108259 6.3077745
1.7083266 -26.17926 2.9254193
0.92536986 -12.269801 2.4726222
-2.6450598 -10.907028 4.4592366
1.5479063 -24.376888 2.7937636
2.5007532 -13.393936 6.0194044
2.247407 -13.835282 6.4930983
1.154424 -18.069019 7.432909
1.579954 -21.535299 7.1828499
0.097327031 -31.956146 3.4203606
2.5930481 -17.606089 4.2877722
-1.5386903 -29.434551 7.0194111
0.42948166 -26.832676 7.6607265
0.85099822 -34.571781 4.5844545
2.1777523 -21.476522 3.4170949
2.6870825 -11.59268 5.1484694
-2.1844015 -15.683766 6.571341
-2.0695059 -29.61331 6.3805966
0.9481774 -14.064445 7.5233474
0.52834833 -21.027805 2.3521891
2.2299182 -18.112206 3.480664
-1.1616354 -33.655052 5.4589858
-2.4977126 -10.243195 3.9734864
0.42843613 -29.059824 2.2308698
-2.6693754 -16.202866 4.6746168
-2.6774673 -10.181089 4.7567949
1.2685485 -15.605869 7.371912
-2.3313885 -29.018719 6.0499706
2.0941556 -26.777319 3.3152246
1.7827152 -10.868288 2.9864702
0.30669361 -31.956144 5.2909851
-2.3713045 -23.473438 3.7344866
-1.4973117 -23.276705 7.2496414
-2.0960763 -27.594303 6.6715031
1.8053044 -19.692322 3.005008
-0.29263327 -17.175629 7.674202
1.8372475 -30.181946 3.472116
0.41314161 -34.731758 4.1130824
0.20776297 -14.357925 7.682559
2.2648702 -20.777927 6.4675627
-2.0477917 -16.514343 3.2587273
2.0722623 -16.550541 6.7106009
1.5211099 -27.997047 7.188767
0.4466221 -18.190653 7.6590395
0.75464809 -30.871006 7.19135
-2.4254744 -19.220768 6.1671114
-1.1232858 -26.511822 7.4495516
-1.3677847 -33.474602 4.9400592
1.8841155 -20.68959 3.0696874
-0.011523649 -14.2814 7.7018824
-0.82969218 -27.328039 2.4435983
1.2496574 -17.665871 2.6208882
2.677572 -24.43375 4.7578583
-0.48974073 -31.10199 2.7753592
-1.288353 -22.111917 2.6415732
1.4230069 -16.730118 2.713553
-2.149677 -30.498241 5.7775517
1.7575256 -24.288774 2.9657962
-1.7990909 -14.049616 7.0030065
0.47004706 -31.956144 5.1558094
2.5284774 -13.242375 5.9280076
0.436261 -10.622125 2.2236009
1.3663106 -30.415754 6.9433689
-0.032856561 -23.653957 7.6997805
0.83765572 -29.241732 7.4395561
2.2673867 -13.259297 6.4628544
0.047371786 -24.691431 7.6983514
-2.1126251 -19.754345 3.3377321
0.60754979 -13.893946 2.376214
-2.1124206 -22.782747 3.3374829
-1.4676452 -26.958813 2.7374148
-2.6635082 -14.582903 4.615026
2.360786 -20.536688 6.2881274
0.42275679 -12.543728 7.6613898
1.7642124 -25.96307 7.0316296
-0.19703074 -25.437153 7.6836147
-2.5092704 -26.563828 4.0115881
-2.1239974 -20.212463 6.6463542
0.66066968 -13.672979 2.3923275
-0.49126494 -19.504339 2.3482716
-1.0913482 -33.236595 5.9153404
-2.5822873 -20.099354 4.2522984
-0.31701019 -24.660873 2.3311124
2.659811 -11.179773 5.4254346
-1.6454389 -22.968176 7.1291065
2.5762205 -24.239204 5.7706156
-0.67995936 -12.887683 7.6047258
1.9533185 -17.477112 6.8583097
0.081394725 -31.037298 7.3017883
-2.485389 -16.589312 3.9478915
0.65183568 -24.781349 2.389647
-0.26599979 -25.704556 7.6768236
-1.4401364 -25.939751 7.2802
-1.2884647 -19.367672 7.3612666
0.71582973 -16.387794 2.4090598
0.2461299 -18.102802 2.3241339
1.0041736 -28.761818 7.426476
1.3931202 -16.67111 7.3053303
-2.5546837 -18.883587 4.1612997
-2.5677328 -25.831764 5.7985973
0.06841749 -21.223072 7.696279
-1.549438 -23.225674 2.7950208
0.69690067 -23.160728 2.4033177
0.47970951 -31.956144 3.9037519
2.5366745 -17.329597 5.9009852
2.5367866 -24.637613 5.9006152
-1.0729278 -11.516273 2.5264175
-1.8031144 -14.322214 6.9997044
2.2667098 -21.595339 6.4641213
-2.6834934 -11.944459 4.8179941
-0.79020083 -11.920818 7.5712781
-0.097951114 -23.479164 2.3095431
-1.4350473 -33.119743 4.4595671
2.6682348 -24.551422 5.3398843
-2.2677627 -13.736488 3.540803
1.1863208 -17.78714 2.5870314
0.68968838 -23.63446 7.6017742
2.6866875 -19.003159 4.8504333
-1.6986114 -28.374308 2.9939322
-0.31592938 -17.554541 2.331007
-1.1796935 -17.685925 2.5834889
1.4699812 -23.309431 2.7386634
0.86130971 -34.486626 4.473011
-0.46112245 -25.295715 2.3453026
-2.5315354 -20.092007 4.0849886
-0.77418256 -32.976681 6.4578238
-1.6273232 -22.974915 2.8589401
